ply
format ascii 1.0
element vertex 719
property float x
property float y
property float z
property float nx
property float ny
property float nz
property uchar diffuse_red
property uchar diffuse_green
property uchar diffuse_blue
end_header
-11.0635 -1.95866 -6.67726 0.708227 -0.0273236 -0.705455 138 113 102
-11.0785 -1.92636 -6.56726 0.932381 0.0517815 -0.357749 169 156 144
-11.0514 -1.89713 -6.57738 0.999895 -0.0022997 -0.0143086 172 158 145
-11.0532 -1.87265 -6.52933 0.991104 0.0865392 -0.101115 116 108 101
-11.0491 -1.92606 -6.52906 0.997252 0.0326838 -0.0664925 114 108 99
-11.0498 -1.83935 -6.48259 0.998737 0.0227635 -0.0447962 82 79 79
-11.0458 -1.89851 -6.48367 0.989002 0.0880428 -0.118847 83 80 80
-11.0698 -1.88021 -6.38061 0.99779 0.0575783 -0.0331594 91 91 90
-11.0632 -1.84929 -6.43289 0.989168 -0.060023 -0.133952 95 97 99
-11.0594 -1.80086 -6.23687 0.948863 -0.0710745 0.307584 173 160 148
-11.0714 -1.78272 -6.1815 0.970533 0.0352746 -0.238372 137 116 104
-11.1313 -1.82863 -6.14692 0.947787 -0.00322419 0.318888 128 109 98
-11.1139 -1.76453 -6.12972 0.892704 0.0713562 0.444959 119 100 91
-11.1338 -1.80437 -6.09399 0.970594 -0.071144 -0.229969 129 104 95
-3.37882 -0.809095 -9.67665 -0.521335 0.633049 0.572239 52 61 62
-3.40012 -0.806006 -9.6415 -0.63851 0.0751412 0.765937 65 64 58
-10.9613 -2.16782 -8.09803 0.996717 -0.0272855 0.0762318 195 198 205
-10.9289 -2.1455 -8.06066 0.900622 -0.0322358 0.433406 189 192 199
-11.0208 -2.14443 -8.00942 0.387654 0.398738 0.831103 159 161 164
-11.0061 -2.20284 -8.00939 0.589681 0.268312 0.761765 162 163 166
-11.054 -2.18683 -7.97103 0.451241 0.330737 0.828851 155 154 154
-11.0358 -2.15402 -7.93469 0.648569 0.306182 0.696858 153 151 148
-11.1186 -2.21272 -7.85152 0.899864 -0.423806 0.10312 151 152 146
-10.9501 -2.0735 -7.80308 0.859144 -0.209632 0.466825 145 143 133
-11.0501 -2.08058 -7.59326 0.941209 -0.246742 -0.230746 137 134 133
-11.0427 -2.06939 -7.52599 0.979234 -0.0258967 0.201073 134 136 144
-11.0796 -2.07601 -7.42593 0.959865 0.11745 0.254687 118 123 140
-11.0608 -2.10052 -7.47223 0.94162 -0.0460628 0.333511 128 131 142
-11.0736 -2.04824 -7.47172 0.952314 0.161147 0.259095 110 114 131
-11.0749 -2.03594 -7.37574 0.992785 0.0308155 0.115882 127 135 151
-11.0653 -2.00608 -7.42476 0.996007 0.052578 0.0721457 107 114 134
-11.0749 -2.03575 -7.26542 0.995064 -0.0175455 0.0976721 67 69 76
-11.0568 -2.00055 -7.32948 0.989095 -0.0137667 -0.146632 123 130 142
-11.0271 -1.98007 -7.32832 0.931095 -0.067106 0.358551 116 122 135
-11.0535 -1.9734 -7.28006 0.994217 0.0598726 0.0891551 76 80 87
-10.9878 -1.95804 -7.23351 0.925306 0.154718 -0.346225 71 72 78
-11.0687 -2.03399 -7.22361 0.999788 -0.00772998 0.0190735 66 67 73
-11.0871 -1.96279 -7.18014 0.946453 0.29106 -0.139681 77 78 82
-11.1024 -2.01978 -7.17737 0.975086 0.140336 -0.171792 71 72 77
-11.0752 -1.9318 -7.14497 0.837098 -0.0809099 0.541037 83 84 88
-11.0018 -1.9746 -7.13423 0.817552 0.0135843 0.575694 77 75 81
-11.0368 -1.96189 -7.12578 0.870886 0.106884 -0.479722 79 80 86
-11.073 -1.93407 -7.11612 0.943385 0.21638 -0.251407 87 85 90
-11.1186 -1.99183 -7.00313 0.957548 0.0571308 -0.282556 85 83 91
-11.0901 -1.9272 -7.01072 0.988657 -0.0668248 -0.134508 81 81 87
-11.1344 -1.96605 -7.04776 0.96495 0.0743344 -0.251687 87 83 86
-11.1017 -1.98813 -7.00888 0.905844 0.181444 -0.382787 83 82 89
-11.0868 -1.95394 -6.9665 0.976587 0.140834 -0.162614 139 141 148
-11.0854 -1.92034 -6.92318 0.939739 0.145877 0.30921 186 189 195
-11.0907 -1.90318 -6.96721 0.973061 0.17051 0.155171 137 139 145
-11.1036 -1.90422 -6.87098 0.991996 0.00328192 0.126227 179 175 176
-11.1011 -1.89329 -6.87659 0.987982 0.144599 -0.0546108 182 180 181
-11.1039 -1.93305 -6.82347 0.999004 0.0431714 0.0112434 136 122 119
-11.0937 -1.86521 -6.82741 0.980617 0.146523 0.130079 138 124 121
-11.1045 -1.86947 -6.83256 0.984386 0.149576 -0.0927973 141 129 126
-11.1036 -1.904 -6.77605 0.912678 0.385467 0.135774 130 108 101
-11.1238 -1.85167 -6.77326 0.917371 0.395092 0.0482986 129 108 101
-11.1468 -1.86727 -6.77305 0.951717 0.259844 0.16345 128 108 102
-11.0987 -1.87632 -6.74025 0.851979 0.517692 -0.0782747 124 99 90
-11.1372 -1.83293 -6.73249 0.681866 0.135081 -0.718897 124 100 91
-11.069 -1.91029 -6.74221 0.954407 -0.297051 0.0294453 123 95 86
-11.0471 -1.8814 -6.67456 0.515016 0.0596195 -0.855105 149 127 115
-11.046 -1.82826 -6.67701 0.449364 0.0572718 -0.891511 146 123 111
-11.1082 -1.90278 -6.69645 0.757121 -0.170642 -0.630594 119 94 84
-11.0175 -1.84601 -6.64164 0.927068 0.0745665 -0.367403 176 156 143
-11.0263 -1.79869 -6.63931 0.968078 0.0289023 0.248976 175 155 142
-11.0538 -1.86981 -6.63097 0.917153 -0.0121009 0.398351 177 157 144
-11.054 -1.81388 -6.52956 0.997967 0.0206445 0.0602996 113 107 99
-11.0554 -1.84602 -6.57754 0.997266 0.023712 0.0699886 171 157 144
-11.0528 -1.78615 -6.57778 0.999376 -0.0013752 0.0353059 169 155 143
-11.0543 -1.78308 -6.4833 0.9971 0.0332536 0.0684612 80 78 78
-11.0541 -1.78269 -6.48091 0.998926 0.00309744 0.0462236 82 79 80
-11.0601 -1.78993 -6.43383 0.989361 -0.0396398 -0.13998 95 96 99
-11.0617 -1.76114 -6.38326 0.998754 0.0305491 0.0394617 91 89 89
-11.0629 -1.76431 -6.38274 0.997716 0.0615397 0.0278673 91 89 89
-11.0659 -1.79159 -6.33173 0.999408 0.0312846 0.0143366 144 136 130
-11.0667 -1.74113 -6.33358 0.730775 0.0330247 -0.681819 137 131 126
-11.0713 -1.7738 -6.28258 0.998898 0.0416009 0.0217325 178 168 159
-11.0813 -1.75467 -6.22829 0.971487 -0.00243241 -0.237081 173 159 148
-11.0763 -1.72213 -6.2796 0.994962 0.059581 -0.0806257 180 168 158
-11.0802 -1.70025 -6.22992 0.975458 0.029013 -0.218268 173 159 148
-11.0562 -1.67898 -6.18946 0.777766 -0.0309727 -0.62779 134 114 102
-11.0699 -1.72719 -6.1821 0.900613 0.0651112 0.429717 127 112 101
-11.0553 -1.67795 -6.18941 0.776398 -0.0170408 -0.630012 134 114 102
-11.0611 -1.72195 -6.19043 0.972608 0.00304252 -0.232431 136 118 107
-11.0933 -1.66767 -6.13124 0.93323 -0.177533 0.312352 118 99 91
-5.25004 -1.22547 -9.83698 -0.293966 0.427356 0.854957 118 85 72
-11.0187 -2.14778 -8.15397 0.928451 -0.00353485 0.371439 194 192 197
-10.9239 -2.03035 -8.07401 0.992444 -0.0697791 -0.100929 192 195 202
-10.9356 -2.09287 -8.07435 0.784014 -0.109714 -0.61097 195 196 203
-10.9788 -2.05693 -8.01722 0.978897 0.0471435 0.198845 163 166 170
-11.0508 -2.10685 -7.97172 0.567451 0.322123 0.757783 151 151 151
-11.0405 -2.12645 -7.97784 0.512087 0.257099 0.819553 153 152 152
-10.9587 -2.02059 -7.9703 0.96908 -0.0478575 0.24206 149 150 151
-10.9003 -2.02824 -7.92564 0.860783 0.0359015 0.507705 149 148 146
-10.9747 -2.02526 -7.88058 0.764254 -0.160389 0.624654 148 148 145
-10.9836 -2.09459 -7.8978 0.926635 -0.263277 0.268388 150 148 144
-11.0306 -1.99105 -7.79724 0.988623 0.00560519 -0.150313 142 142 138
-10.9828 -2.0348 -7.79747 0.961541 -0.13719 0.237944 144 142 134
-11.0571 -2.02505 -7.84625 0.920045 -0.212181 -0.329388 144 145 141
-11.0468 -1.97351 -7.71571 0.893036 -0.308343 -0.327738 141 139 137
-11.0419 -1.94879 -7.65354 0.913995 -0.314059 -0.256866 127 128 131
-11.047 -2.03463 -7.66048 0.877928 -0.259857 0.402142 131 130 127
-11.0389 -2.00797 -7.59249 0.937728 0.0222217 0.346659 113 116 127
-11.0489 -1.97589 -7.5461 0.949975 0.0077098 0.312229 109 115 134
-11.0665 -1.97929 -7.61523 0.97703 0.172603 -0.124985 116 120 130
-11.0572 -1.95346 -7.57681 0.743583 0.661095 0.100191 112 116 131
-11.0589 -1.97752 -7.47193 0.97973 0.069868 0.187745 110 116 138
-11.0658 -1.94034 -7.46454 0.7871 0.611561 0.080417 112 118 140
-11.0567 -1.93455 -7.53922 0.850962 0.44341 -0.281515 109 113 131
-11.0425 -1.95122 -7.50122 0.957121 0.142891 0.251996 112 117 138
-11.0669 -1.97658 -7.37661 0.997076 0.0372465 -0.0667321 122 131 151
-11.0735 -1.91824 -7.4226 0.980343 0.167444 -0.104355 107 116 139
-11.0745 -1.96818 -7.42186 0.978966 0.204005 0.00264688 112 120 142
-11.0462 -1.94043 -7.33043 0.725708 -0.117926 -0.677821 125 132 146
-11.0729 -1.89335 -7.37901 0.99084 0.0791019 -0.109446 125 135 157
-11.0518 -1.87169 -7.32872 0.986787 0.150356 -0.0603638 126 133 149
-11.0287 -1.92009 -7.27944 0.880467 -0.0127095 -0.473937 80 83 91
-11.0524 -1.92496 -7.22726 0.924055 0.358621 -0.132337 79 78 82
-11.0542 -1.89725 -7.28684 0.953664 0.227649 -0.196725 86 90 98
-11.0159 -1.89776 -7.23168 0.754368 0.350737 -0.554898 80 79 82
-11.059 -1.87432 -7.24352 0.95368 0.298927 -0.0337148 83 84 88
-11.0513 -1.84154 -7.21685 0.995304 0.0941622 -0.0224477 89 86 89
-11.0941 -1.85857 -7.19678 0.994923 0.0402975 0.0922176 89 87 89
-11.1111 -1.86229 -7.12557 0.992717 0.112111 0.0440874 95 92 92
-11.1057 -1.91202 -7.12555 0.989988 0.140663 0.0117417 90 88 90
-11.1263 -1.9064 -7.05661 0.933422 0.0936644 -0.346338 90 87 90
-11.1103 -1.8421 -7.05056 0.976692 0.205071 0.0634013 92 90 92
-11.0974 -1.88416 -7.0835 0.978571 0.200422 0.0472327 93 91 93
-11.1138 -1.8563 -6.96511 0.968598 0.240118 -0.0645058 129 131 136
-11.1163 -1.84456 -6.96246 0.977522 0.209463 -0.0240155 131 133 138
-11.1071 -1.86568 -7.0096 0.965298 0.255404 0.0544928 88 88 92
-11.1048 -1.86659 -6.92154 0.981266 0.172569 -0.0856552 186 189 194
-11.1132 -1.81926 -6.92152 0.980185 0.171732 -0.0987227 183 188 193
-11.1132 -1.81944 -6.92277 0.975649 0.180195 -0.125056 183 187 193
-11.1069 -1.84269 -6.87981 0.973406 0.161652 -0.162323 184 184 186
-11.1207 -1.79686 -6.96331 0.983215 0.181114 -0.0220315 124 127 133
-11.118 -1.79582 -6.96274 0.989921 0.134102 -0.0455428 126 129 135
-11.1328 -1.83181 -6.82445 0.926166 0.324645 -0.191891 141 130 127
-11.1057 -1.81558 -6.8256 0.985363 0.129166 0.111248 138 126 122
-11.1093 -1.79464 -6.883 0.97025 0.0846459 -0.226826 185 186 189
-11.1108 -1.79461 -6.8812 0.97687 0.0598885 -0.205275 185 186 189
-11.1346 -1.77602 -6.81624 0.868441 -0.0567418 -0.492536 138 126 124
-11.132 -1.80419 -6.77762 0.983866 0.0740451 0.162867 131 111 105
-11.1091 -1.80731 -6.75113 0.958376 0.26183 -0.113848 126 103 95
-11.1017 -1.78383 -6.7863 0.810077 0.541776 -0.224173 131 112 106
-11.0806 -1.76365 -6.7252 0.87241 0.0465513 -0.486552 117 89 81
-11.0887 -1.72504 -6.71482 0.959539 -0.0591974 -0.275281 115 90 83
-11.0708 -1.74673 -6.67317 0.589867 0.0436534 -0.80632 141 118 108
-11.0923 -1.73349 -6.56094 0.898833 0.00462109 -0.438266 162 149 138
-11.0567 -1.70258 -6.5293 0.999686 -0.00681892 -0.0241245 111 104 97
-11.0564 -1.75718 -6.5297 0.995911 0.0461327 0.0776794 114 107 99
-11.0541 -1.7292 -6.48257 0.999792 -0.0172274 -0.0109625 80 77 78
-11.0544 -1.68971 -6.48064 0.998774 0.0422148 -0.0258629 80 78 79
-11.0752 -1.70902 -6.37649 0.999642 0.00840744 0.0254032 91 90 89
-11.0757 -1.65108 -6.37647 0.997008 0.0337371 -0.0695532 90 89 88
-11.0691 -1.68634 -6.33408 0.760972 -0.000680804 -0.648785 135 130 124
-11.0245 -1.63305 -6.31094 0.791538 -0.0404557 -0.609779 172 161 153
-11.0726 -1.64549 -6.232 0.796429 -0.0643657 -0.601297 173 158 146
-11.0638 -1.66969 -6.18971 0.976992 -0.0167221 -0.212619 135 116 104
-11.0494 -1.62458 -6.19103 0.79417 -0.0510479 -0.605547 132 112 100
-4.01364 -0.91968 -9.81721 -0.544914 0.163156 0.822465 165 165 165
-10.5102 -2.44236 -10.1125 0.221055 0.292395 0.930398 151 123 114
-10.9286 -1.99309 -8.17477 0.969443 0.189428 0.155879 172 163 165
-10.9351 -2.00528 -8.12022 0.926059 -0.137902 0.35128 195 195 201
-10.9554 -1.97221 -8.14097 0.935458 0.319558 0.151002 193 191 195
-10.9758 -1.9783 -8.06651 0.922744 -0.0527009 0.381793 189 194 199
-10.9721 -1.95334 -8.10151 0.916935 -0.348132 0.195025 196 197 202
-10.924 -1.92508 -8.01664 0.80221 0.510922 0.308898 162 167 173
-10.9933 -2.00634 -8.01734 0.996349 0.0624968 0.0581694 161 164 169
-10.9986 -1.97972 -7.97041 0.994056 0.107444 0.0175657 145 147 151
-10.9644 -1.91859 -7.98074 0.961697 0.0893462 0.259144 144 148 154
-11.0028 -1.95406 -7.92529 0.975993 0.202625 0.0798827 143 145 149
-10.9998 -2.00671 -7.92528 0.991653 0.125498 0.0295783 147 148 149
-10.99 -1.92456 -7.88346 0.957378 0.129309 0.258277 141 143 147
-11.0033 -1.90026 -7.8405 0.96681 0.116451 0.227416 139 143 146
-11.0074 -1.95444 -7.84034 0.911652 0.333894 0.239595 142 143 143
-11.0201 -1.92944 -7.7973 0.909364 0.0376896 0.41429 140 141 141
-11.0327 -1.87759 -7.75945 0.949721 0.232342 0.209877 146 149 151
-11.0219 -1.90013 -7.7158 0.922152 -0.248465 -0.296481 147 147 146
-11.0299 -1.87657 -7.67154 0.848969 -0.163033 -0.502665 145 144 144
-11.0522 -1.88436 -7.65281 0.999012 0.00175282 -0.0443968 136 136 135
-11.0535 -1.93837 -7.65277 0.998466 0.0523374 0.0180785 127 128 130
-11.0581 -1.88158 -7.61628 0.942536 0.230617 -0.241748 128 128 130
-11.0373 -1.92501 -7.61649 0.954977 0.294099 -0.0390413 117 120 129
-11.0468 -1.85449 -7.57678 0.768385 -0.23881 -0.593763 131 132 138
-11.0359 -1.90042 -7.57677 0.754126 -0.0744668 -0.652495 118 121 132
-11.0427 -1.90546 -7.50216 0.917714 -0.286326 0.275353 107 112 131
-11.0743 -1.8671 -7.42286 0.991111 0.121991 -0.0530784 97 106 130
-11.1003 -1.81497 -7.44499 0.990483 0.0210536 0.136016 106 117 143
-11.0689 -1.83399 -7.4911 0.595467 -0.269811 -0.756718 104 112 132
-11.0667 -1.89108 -7.46508 0.880725 0.444859 -0.162557 101 107 128
-11.059 -1.8382 -7.38059 0.774101 -0.303125 -0.555773 117 127 151
-11.017 -1.78861 -7.37039 0.837833 0.509381 0.196386 123 133 156
-11.0488 -1.82191 -7.3297 0.975833 0.206043 0.0727759 127 136 152
-11.0482 -1.8465 -7.28819 0.994781 0.0673456 0.0766545 92 96 104
-11.0448 -1.77372 -7.33099 0.964441 0.254383 0.0717165 125 134 151
-11.0287 -1.79253 -7.29325 0.913085 0.407475 -0.0155275 98 103 111
-11.0363 -1.77358 -7.25789 0.915352 0.402652 0.00171177 95 94 99
-11.057 -1.82036 -7.25493 0.963814 0.266405 -0.00952004 90 90 94
-11.0457 -1.75517 -7.22237 0.947011 0.32083 0.0154511 98 96 99
-11.109 -1.8373 -7.23852 0.997083 0.0754455 0.0115979 88 90 97
-11.0556 -1.79738 -7.21747 0.99769 0.0654249 0.0182999 94 91 93
-11.0535 -1.79862 -7.22033 0.997714 0.0611425 0.028795 93 91 93
-11.1124 -1.78706 -7.16829 0.999257 0.0368476 0.0112934 101 98 99
-11.1068 -1.83609 -7.16856 0.993309 0.110701 -0.0328991 94 90 91
-11.1187 -1.81406 -7.12378 0.996217 0.0730267 0.0471086 100 97 96
-11.1212 -1.76355 -7.12372 0.994487 0.0188431 0.103155 105 105 105
-11.1179 -1.76776 -7.09017 0.998965 0.0263032 0.0371108 104 104 105
-11.1194 -1.79444 -7.05012 0.992014 0.119423 0.0405847 92 92 94
-11.106 -1.81618 -7.09356 0.925268 0.372065 0.073806 100 97 97
-11.1047 -1.81637 -7.09241 0.973859 0.225669 0.025909 100 97 97
-11.1013 -1.76887 -7.00142 0.509976 0.858211 0.058306 97 102 109
-11.1217 -1.74275 -7.04577 0.999174 0.0260727 0.0311882 114 117 120
-11.1213 -1.7436 -7.0501 0.998089 0.0353302 0.0506974 113 115 118
-11.1317 -1.73574 -6.97763 0.991121 -0.0214917 0.131216 131 139 146
-11.1133 -1.77116 -6.92407 0.989883 0.0297468 -0.138737 180 186 192
-11.1172 -1.77163 -6.92216 0.995452 0.00364935 -0.0951934 181 187 193
-11.1103 -1.76937 -6.92249 0.987065 0.0536218 -0.151085 181 187 193
-11.1872 -1.70695 -6.90873 0.999812 0.0193761 -0.00100461 197 204 211
-11.1512 -1.74402 -6.86024 0.884473 0.320473 -0.339124 183 183 187
-11.1248 -1.68772 -6.87118 0.994005 0.025246 -0.106381 194 197 202
-11.1128 -1.70915 -6.83163 0.985884 0.136507 -0.0969435 154 147 148
-11.1222 -1.71603 -6.81996 0.629366 0.0158455 -0.776948 148 138 139
-11.1086 -1.68455 -6.79188 0.965489 0.0414985 -0.257117 148 134 133
-11.1042 -1.64976 -6.75404 0.908152 0.0413215 -0.416596 131 112 109
-11.0971 -1.70833 -6.75133 0.926082 0.0429544 -0.374869 125 103 99
-11.0724 -1.64631 -6.67675 0.978193 0.127348 -0.164079 136 114 105
-11.0492 -1.6126 -6.64709 0.999152 -0.0247653 -0.0329008 169 149 137
-11.0375 -1.65501 -6.64996 0.837184 0.00299138 -0.546914 170 150 138
-11.0695 -1.65896 -6.52212 0.825945 -0.0122856 -0.563617 107 101 94
-11.0909 -1.68204 -6.56047 0.837053 -0.0389182 -0.545736 162 149 138
-11.0718 -1.6107 -6.52128 0.828826 0.0112232 -0.559395 106 100 93
-11.0548 -1.58905 -6.48254 0.997593 0.0240999 -0.065012 79 77 77
-11.0468 -1.58368 -6.49033 0.828366 0.0838751 -0.553872 77 74 74
-11.0529 -1.63761 -6.48319 0.958618 0.217895 -0.183232 79 77 77
-11.0544 -1.63908 -6.48023 0.978446 0.166102 -0.122689 80 78 79
-11.078 -1.62679 -6.42732 0.608408 -0.0545264 -0.791749 96 98 99
-11.0815 -1.59989 -6.37419 0.997596 -0.06921 -0.00348179 91 90 89
-11.0524 -1.61373 -6.34289 0.788598 0.115954 -0.603877 132 126 121
-11.0571 -1.56656 -6.34413 0.818585 -0.0660605 -0.570574 128 123 118
-11.0721 -1.56625 -6.32802 0.99942 0.0118554 0.0319197 146 138 133
-11.0207 -1.58157 -6.31736 0.508529 -0.0805763 -0.857267 172 161 153
-11.0668 -1.53403 -6.30571 0.996233 0.0279879 0.0820712 173 161 153
-11.0517 -1.55376 -6.29466 0.914438 -0.0179839 0.404326 169 161 154
-11.0707 -1.58036 -6.26942 0.997922 0.0356867 0.0536447 179 165 156
-11.0468 -1.57292 -6.19055 0.793159 -0.0757498 -0.604286 131 111 100
-11.0529 -1.52644 -6.18348 0.987177 0.0192369 -0.158464 129 107 96
-11.0853 -1.57278 -6.12718 0.988729 -0.0146544 0.148994 126 102 93
-11.0399 -1.49749 -6.14388 0.540984 0.813326 -0.214098 116 97 88
-3.55983 -0.754599 -9.68547 -0.265073 -0.49895 0.825098 134 115 95
-3.69461 -0.810073 -9.77502 -0.328241 -0.408208 0.851836 115 102 84
-4.00541 -0.860017 -9.77892 -0.486768 -0.0487377 0.872171 160 163 160
-10.9456 -1.92227 -8.22052 0.953029 0.294029 -0.0726848 139 122 123
-10.92 -1.93948 -8.17884 0.876334 0.441435 -0.192806 163 154 155
-10.9591 -1.87177 -8.21949 0.974631 0.222585 -0.0234648 143 131 134
-10.947 -1.89313 -8.17799 0.983451 0.150614 -0.100694 163 155 158
-10.9581 -1.92542 -8.14052 0.987939 0.148879 -0.0425781 192 190 195
-10.9615 -1.87442 -8.14042 0.980359 0.191977 -0.0451709 193 194 200
-10.9795 -1.90579 -8.09725 0.986695 -0.162542 0.00370593 193 196 204
-11.0088 -1.8451 -8.01046 0.927645 -0.204755 -0.312331 180 189 201
-10.9863 -1.85269 -8.06846 0.992873 0.117042 0.0224499 193 201 210
-10.9547 -1.90902 -8.0531 0.989718 0.0900002 0.11117 186 191 198
-10.9085 -1.87662 -8.01623 0.837359 0.381941 0.39109 163 169 176
-10.9534 -1.88873 -7.92552 0.902839 0.261494 0.341325 140 144 150
-10.9727 -1.84464 -7.9255 0.910731 0.325646 0.254015 153 160 170
-10.972 -1.8204 -7.96327 0.908305 -0.372743 0.189854 177 187 199
-10.9825 -1.87234 -7.88659 0.902624 0.089451 0.421034 142 147 154
-11.0063 -1.8486 -7.84047 0.983905 0.0797698 0.159899 161 167 174
-11.015 -1.87569 -7.79727 0.969333 0.105501 0.221954 145 149 153
-11.011 -1.79798 -7.84048 0.988242 -0.0616359 0.139925 199 208 220
-11.0167 -1.82412 -7.79694 0.990916 0.0822062 0.106429 186 192 200
-11.0171 -1.82171 -7.76028 0.989457 -0.13615 -0.0493839 177 181 186
-11.0284 -1.79908 -7.7157 0.999471 0.0323431 -0.00350666 153 156 158
-11.0146 -1.77155 -7.75544 0.883645 0.34429 -0.317232 189 194 201
-11.029 -1.85075 -7.71561 0.998979 0.0438066 0.011024 150 151 152
-11.0219 -1.82309 -7.67171 0.829263 -0.14888 -0.538663 148 147 147
-11.0145 -1.77202 -7.67734 0.625177 -0.201636 -0.753988 142 144 146
-11.0582 -1.76688 -7.61077 0.996551 0.0234703 -0.0795898 124 128 130
-11.0111 -1.7875 -7.60392 0.980905 0.164292 -0.104086 129 130 128
-11.0413 -1.77925 -7.63676 0.987279 -0.105971 -0.118536 130 130 129
-10.9811 -1.74324 -7.60696 0.756159 0.640464 -0.134272 125 127 126
-11.0258 -1.73439 -7.57151 0.898033 0.434755 -0.0672639 119 125 129
-11.0365 -1.75649 -7.53623 0.989458 0.142808 -0.024069 109 116 126
-11.0359 -1.80292 -7.53599 0.980055 0.198721 -0.00148161 119 123 132
-11.0511 -1.79108 -7.56765 0.995622 0.0192035 -0.0914778 126 130 132
-11.0453 -1.77219 -7.48825 0.985935 0.155869 0.0602988 100 110 132
-11.0467 -1.72539 -7.48844 0.947507 0.311312 0.0729014 95 108 130
-11.0171 -1.74362 -7.37139 0.859356 0.471822 0.197208 120 131 153
-11.0685 -1.77907 -7.40218 0.995376 -0.0314454 0.0907688 109 122 149
-11.0355 -1.76641 -7.40375 0.973255 0.193602 0.123664 110 121 148
-11.049 -1.72929 -7.40411 0.959117 0.252226 0.128362 108 121 147
-11.0456 -1.74818 -7.44912 0.980134 0.138442 0.142027 103 117 143
-11.0739 -1.74023 -7.30547 0.878813 0.264197 0.39735 113 122 135
-11.047 -1.71058 -7.37073 0.928757 0.357655 0.0974357 115 127 149
-11.0692 -1.69543 -7.33466 0.956666 0.282124 0.0720813 135 145 160
-11.0671 -1.73671 -7.33379 0.986976 0.129615 0.0952788 125 135 151
-11.0659 -1.69603 -7.25752 0.917858 0.391602 0.0646896 121 125 131
-11.0763 -1.67748 -7.29232 0.919406 -0.353164 0.173114 160 166 176
-11.0652 -1.71671 -7.22187 0.907039 0.41759 0.0538369 107 109 112
-11.0993 -1.73291 -7.16964 0.994148 0.105874 0.0214449 110 110 112
-11.0835 -1.68009 -7.22176 0.908356 0.414065 0.0586519 158 162 167
-11.0786 -1.69978 -7.18642 0.956866 0.28844 0.0347952 128 129 133
-11.0909 -1.66186 -7.18703 0.863903 0.499818 -0.0620741 189 193 198
-11.1046 -1.64523 -7.11332 0.789773 0.243559 0.562973 196 199 204
-11.0867 -1.68004 -7.14967 0.923895 -0.343788 0.168013 168 170 175
-11.1203 -1.71895 -7.09235 0.994852 0.0776321 0.0651407 131 134 137
-11.1212 -1.71816 -7.08835 0.99535 0.0711097 0.0649797 132 135 138
-11.1273 -1.64594 -7.04995 0.996572 0.0316199 0.0764454 196 200 204
-11.1246 -1.69349 -7.04574 0.996354 0.0555526 0.0647557 173 178 183
-11.124 -1.69489 -7.05019 0.996985 0.0677716 0.0377963 171 176 180
-11.1233 -1.67033 -7.09239 0.992937 0.0622717 0.100985 193 197 203
-11.1333 -1.64373 -6.95882 0.997745 -0.00535884 0.0669022 196 202 207
-11.1331 -1.67006 -7.00281 0.994866 0.065229 0.0773766 195 202 207
-11.1332 -1.6166 -6.91427 0.999201 0.0333337 0.0220415 190 192 194
-11.1189 -1.66269 -6.83168 0.987682 0.102761 -0.118 164 160 163
-11.1315 -1.64122 -6.87105 0.999081 0.024984 0.0348246 194 196 200
-11.1316 -1.59057 -6.87124 0.999664 -0.0254204 0.00509281 166 162 163
-11.1365 -1.6119 -6.82448 0.935811 0.352311 -0.0116291 152 147 149
-11.1341 -1.58864 -6.78794 0.879386 0.360362 -0.311157 147 135 134
-11.1028 -1.60024 -6.75668 0.909693 -0.0411561 -0.413236 135 117 114
-11.0872 -1.57693 -6.7168 0.898681 -0.00926477 -0.438506 113 92 85
-11.086 -1.62478 -6.7171 0.908111 0.041437 -0.416674 115 93 86
-11.0856 -1.62579 -6.71751 0.903759 0.0390838 -0.426253 115 93 87
-11.0788 -1.55533 -6.6773 0.969882 0.0713306 -0.232898 134 112 102
-11.077 -1.60312 -6.67772 0.947461 0.219524 -0.232654 134 112 103
-11.0591 -1.52573 -6.64498 0.924707 0.0093959 -0.380564 169 150 137
-11.0651 -1.57674 -6.63944 0.961461 -0.0233316 -0.273951 170 151 139
-11.0674 -1.51215 -6.5254 0.829736 -0.0155124 -0.557941 108 102 94
-11.0678 -1.55993 -6.52569 0.796952 0.0735749 -0.599546 109 103 95
-11.0481 -1.53829 -6.48897 0.880449 -0.100701 -0.463323 77 74 74
-11.0748 -1.54009 -6.37573 0.986669 0.0087027 -0.162504 89 88 87
-11.0746 -1.48952 -6.3761 0.985426 0.0807062 -0.149739 89 88 87
-11.0702 -1.51634 -6.3315 0.998468 0.012372 -0.0539374 143 135 130
-11.0736 -1.47851 -6.30461 0.989083 0.0676969 0.130892 172 161 153
-11.0795 -1.50749 -6.25515 0.999057 0.0335316 0.0275759 180 164 154
-11.0854 -1.45998 -6.21204 0.648648 -0.0692749 -0.757929 159 142 129
-11.0543 -1.47493 -6.18321 0.980168 0.0136319 -0.197701 127 106 95
-11.0522 -1.42346 -6.18499 0.973432 0.016082 -0.228412 127 105 94
-11.1313 -1.42846 -6.07303 0.839815 0.43638 -0.32293 117 96 87
-3.84732 -0.807588 -9.80203 -0.278704 -0.452787 0.84694 158 157 150
-10.9615 -1.8478 -8.26081 0.980379 0.194598 0.0314568 162 150 154
-10.9534 -1.79622 -8.26006 0.961933 0.270457 0.0392115 202 201 209
-10.9675 -1.82463 -8.21945 0.974046 0.225902 -0.0142164 187 183 189
-10.9527 -1.84255 -8.17793 0.938685 0.341638 -0.0464072 175 171 177
-10.959 -1.77562 -8.21814 0.976939 0.212239 0.0233353 193 198 209
-10.9663 -1.79992 -8.17788 0.946432 0.320337 -0.0406185 199 203 212
-10.9706 -1.82412 -8.1394 0.905364 -0.382612 0.184187 202 206 216
-10.9816 -1.78177 -8.13678 0.983204 0.182311 -0.00853682 191 202 215
-10.9825 -1.75755 -8.09575 0.962045 0.272779 -0.00781076 178 192 210
-10.9793 -1.8054 -8.09617 0.997423 0.035589 0.0623 198 207 220
-10.9673 -1.77654 -8.05704 0.902459 -0.388128 0.186884 191 204 220
-10.9946 -1.80633 -8.01686 0.992598 0.0576992 0.106868 193 206 220
-10.9821 -1.8003 -7.92551 0.884129 -0.357183 0.301226 192 203 217
-10.9923 -1.75773 -8.01638 0.97706 0.144856 0.156111 173 189 209
-11.006 -1.75015 -7.96072 0.944795 0.204208 0.256246 157 175 197
-11.0102 -1.72683 -7.92203 0.916111 0.276449 0.290374 116 135 160
-11.0171 -1.75023 -7.90165 0.991676 -0.0272011 0.125852 165 181 202
-11.0225 -1.70734 -7.7965 0.983541 0.109064 0.144055 193 205 217
-11.0279 -1.75327 -7.79281 0.992156 0.0515101 0.113901 195 205 216
-11.0199 -1.73196 -7.83723 0.958512 0.0332706 0.283103 188 202 217
-11.0382 -1.68614 -7.75609 0.991688 0.0460901 0.120125 177 187 196
-11.0301 -1.70606 -7.71641 0.972223 0.205102 -0.112761 138 146 151
-11.0073 -1.74636 -7.71691 0.957783 0.219255 -0.185956 148 152 156
-11.0147 -1.72918 -7.75674 0.997814 0.0407892 0.0519913 183 191 199
-11.042 -1.68604 -7.67706 0.967672 0.252012 -0.0100914 132 139 144
-11.039 -1.7305 -7.67672 0.932715 -0.360471 0.0101429 132 136 138
-11.032 -1.70599 -7.6394 0.928245 -0.367101 0.059982 124 128 132
-11.0056 -1.72265 -7.67818 0.860453 -0.508877 0.0257873 131 137 139
-11.0087 -1.69576 -7.64039 0.787449 0.614979 0.0415241 124 129 132
-11.0291 -1.66012 -7.64007 0.9347 0.349392 0.0652873 142 150 156
-11.0012 -1.71244 -7.60725 0.747572 0.645894 -0.154781 120 124 126
-11.0167 -1.67767 -7.60608 0.704389 0.70574 0.0759482 128 135 140
-11.0303 -1.66059 -7.57281 0.73998 0.672394 0.0177742 142 152 161
-11.0152 -1.69563 -7.57367 0.805491 0.590956 -0.0442188 118 125 132
-11.0294 -1.66041 -7.57291 0.731601 0.681387 0.0217407 142 152 161
-11.0455 -1.68199 -7.53803 0.891652 0.452193 0.0218762 116 128 141
-11.0254 -1.71379 -7.53739 0.906851 0.417896 0.0546238 102 112 124
-11.0518 -1.64438 -7.53876 0.752285 0.652509 0.0911006 169 181 193
-11.0496 -1.66356 -7.50459 0.870885 0.490793 -0.0261068 141 155 172
-11.0433 -1.70063 -7.4495 0.844789 0.524873 0.104113 107 123 147
-11.0586 -1.68734 -7.40417 0.859238 0.499986 0.108273 129 143 165
-11.0446 -1.68132 -7.47076 0.918573 0.382704 0.0987974 112 128 150
-11.0598 -1.64437 -7.47077 0.946002 0.300497 0.121578 171 185 202
-11.0473 -1.66208 -7.43695 0.821598 0.542937 0.17377 148 163 183
-11.0702 -1.62624 -7.43563 0.854682 0.484741 0.185863 175 186 200
-11.0642 -1.67297 -7.37057 0.866459 0.48749 0.107717 149 161 179
-11.0843 -1.65584 -7.33444 0.978111 0.194909 0.0728619 182 191 202
-11.0904 -1.61344 -7.40175 0.846389 0.51504 0.135498 173 181 190
-11.0704 -1.64752 -7.4018 0.852222 0.499964 0.154125 175 188 203
-11.082 -1.63197 -7.36847 0.926097 0.341056 0.161322 180 190 200
-11.0818 -1.65862 -7.25752 0.920274 -0.362665 0.146868 186 191 198
-11.0961 -1.61842 -7.33495 0.916816 0.370111 0.149885 180 185 192
-11.0955 -1.61871 -7.33507 0.917085 0.366332 0.157339 180 186 192
-11.1071 -1.60404 -7.30167 0.846336 0.501341 0.179924 178 179 182
-11.106 -1.60473 -7.30188 0.863666 0.472731 0.174947 178 179 183
-11.085 -1.63795 -7.30184 0.930322 0.354386 0.0944014 187 193 201
-11.084 -1.63913 -7.30215 0.942585 0.318075 0.101789 187 193 202
-11.0967 -1.64245 -7.22206 0.943627 0.318003 0.0918875 191 196 202
-11.1057 -1.6021 -7.22242 0.964489 0.235816 0.118962 178 178 180
-11.1165 -1.58938 -7.26837 0.896486 0.405659 0.178194 158 155 155
-11.1131 -1.62527 -7.18563 0.899564 0.433532 0.0532483 189 192 196
-11.1214 -1.58718 -7.18643 0.953535 0.287918 0.0887393 152 147 146
-11.1112 -1.60533 -7.1521 0.948325 0.314043 0.0453546 181 181 182
-11.0795 -1.63815 -7.15344 0.921945 -0.361453 0.139176 196 199 203
-11.139 -1.57 -7.14969 0.894133 0.439261 0.0870428 132 120 117
-11.1189 -1.58617 -7.11646 0.990379 -0.0454256 0.130714 152 146 146
-11.1244 -1.56043 -7.07237 0.991576 -0.00962397 0.129169 126 113 109
-11.1309 -1.61851 -7.00349 0.990124 -0.069302 0.121865 188 189 191
-11.1258 -1.56561 -7.00388 0.983253 -0.0742784 0.166425 125 116 112
-11.1366 -1.54498 -7.04117 0.98943 0.106682 0.0982174 127 110 104
-11.1277 -1.59295 -7.04939 0.994729 0.0053066 0.102407 154 149 149
-11.1306 -1.56517 -6.91522 0.996688 -0.0255146 0.0772109 133 124 121
-11.1335 -1.59207 -6.95844 0.994547 -0.0459009 0.0936416 151 147 146
-11.1408 -1.54298 -6.95714 0.975034 0.0208226 0.221075 128 113 107
-11.1423 -1.54254 -6.8693 0.991322 0.0951968 0.0906598 143 130 127
-11.141 -1.51675 -6.91341 0.968241 0.0439004 0.246134 134 115 109
-11.153 -1.57018 -6.82362 0.965139 0.254549 0.0609197 145 134 134
-11.1638 -1.52715 -6.82371 0.974167 0.201886 0.101195 145 128 124
-11.1553 -1.54806 -6.78621 0.8376 0.403458 -0.368306 149 135 132
-11.1262 -1.49557 -6.7925 0.960504 0.188767 -0.204448 141 123 117
-11.1144 -1.55601 -6.75729 0.882687 0.133102 -0.45072 140 123 119
-11.1104 -1.47074 -6.75901 0.851349 0.159521 -0.499758 127 105 97
-11.1152 -1.5149 -6.7567 0.877606 0.0989791 -0.469053 137 119 112
-11.0904 -1.52953 -6.7161 0.89986 0.0136739 -0.435964 113 92 83
-11.0776 -1.47979 -6.71868 0.926156 0.1165 -0.358695 112 90 80
-11.0694 -1.50507 -6.68048 0.902311 0.142982 -0.406683 134 113 102
-11.0866 -1.46833 -6.67425 0.442925 0.0725999 -0.893614 134 113 102
-11.0543 -1.48073 -6.64729 0.924698 0.108436 -0.364933 168 149 136
-11.0558 -1.43633 -6.64902 0.953636 0.194463 0.2297 166 147 134
-11.0718 -1.44219 -6.57031 0.960823 0.274089 0.0411565 165 152 139
-11.0655 -1.46266 -6.53292 0.960194 0.277275 0.0338481 118 111 102
-11.0803 -1.4228 -6.53188 0.853649 0.0305842 0.51995 120 114 105
-11.0749 -1.41854 -6.53452 0.801918 0.0282536 -0.596765 126 118 109
-11.0604 -1.43597 -6.50116 0.999515 0.00285521 -0.0310118 77 74 71
-11.0509 -1.47988 -6.49965 0.775739 0.00772861 -0.631006 76 74 72
-11.0864 -1.4686 -6.41465 0.995796 0.0172164 -0.089961 91 94 97
-11.075 -1.4402 -6.37809 0.981862 0.115356 -0.150465 90 88 88
-11.0819 -1.41711 -6.41835 0.997555 0.0665581 -0.0212873 93 96 98
-11.0768 -1.39259 -6.38018 0.986745 0.113993 -0.115501 89 88 87
-11.0766 -1.42249 -6.3048 0.986122 0.0416324 0.160715 171 161 152
-11.0754 -1.41883 -6.33666 0.983112 0.113592 -0.143485 130 123 118
-11.0795 -1.37191 -6.33808 0.99613 0.044556 -0.0757581 126 120 114
-11.0766 -1.36494 -6.30529 0.975739 0.0452268 0.214213 170 159 150
-11.0842 -1.39398 -6.25627 0.992874 0.0582348 0.103973 178 164 152
-11.061 -1.39868 -6.2269 0.901152 0.0914834 0.423741 164 146 134
-11.046 -1.37168 -6.18951 0.775749 -0.0889103 -0.624747 127 105 95
-11.0817 -1.36078 -6.17189 0.997777 0.0282276 0.0603651 125 103 93
-11.0773 -1.33098 -6.12749 0.998172 -0.0560864 -0.0225337 123 98 90
-11.1445 -1.38077 -6.07714 0.579048 0.64507 0.498586 119 97 90
-3.74677 -0.754244 -9.78424 -0.235223 0.843685 0.482562 92 64 50
-3.99066 -0.803484 -9.79211 -0.497821 -0.0585602 0.8653 148 152 150
-4.19433 -0.85595 -9.80979 -0.483608 0.305728 0.820155 160 163 161
-4.24392 -0.86447 -9.82854 -0.438049 0.31635 0.841448 158 160 159
-4.29298 -0.865291 -9.83876 -0.472436 0.324997 0.819256 156 158 157
-10.9857 -1.73458 -8.21914 0.983084 0.17464 0.0551994 150 164 180
-10.9805 -1.7463 -8.26587 0.957729 0.264624 0.112828 164 174 189
-10.9923 -1.7022 -8.26585 0.987413 0.117535 0.105839 143 158 177
-10.9779 -1.75682 -8.1778 0.989904 0.138956 0.0279686 178 189 203
-10.9874 -1.71048 -8.17788 0.991235 0.12502 0.0427098 147 164 183
-10.988 -1.7349 -8.13679 0.991097 0.128755 0.0338958 151 167 186
-10.9826 -1.68538 -8.21843 0.993908 -0.109503 0.0125138 155 172 193
-10.9921 -1.71152 -8.09581 0.981619 0.187702 0.0345256 120 140 164
-10.9966 -1.68848 -8.13723 0.99787 0.0649623 0.00593944 142 162 186
-10.9965 -1.66584 -8.09574 0.977769 0.209667 -0.00289553 132 156 182
-11.0006 -1.6902 -8.05649 0.977034 0.194437 0.0871748 104 127 155
-11.0019 -1.69018 -8.05726 0.972271 0.218049 0.0845249 104 127 155
-10.9898 -1.7337 -8.05647 0.982637 0.142281 0.119084 145 163 185
-10.9911 -1.63945 -8.05546 0.992996 0.117282 0.0142597 117 142 171
-11.0024 -1.66734 -8.01887 0.979351 0.183157 0.0855865 100 124 155
-11.0034 -1.6676 -8.01773 0.978433 0.188522 0.0844317 100 124 155
-10.9992 -1.7123 -8.01891 0.972634 0.14606 0.180692 95 116 143
-10.9972 -1.71226 -8.01775 0.975702 0.105217 0.192185 96 117 144
-11.0008 -1.69398 -7.96 0.989975 0.124312 0.0670527 84 105 134
-11.009 -1.68429 -7.92425 0.978292 0.160461 -0.131137 95 116 146
-11.0054 -1.69025 -7.9021 0.977994 0.205934 0.0334604 114 133 160
-11.0338 -1.64566 -7.96158 0.857261 0.398495 0.326045 121 146 176
-11.0128 -1.61914 -7.88285 0.97594 -0.0597185 0.2097 145 166 191
-11.0313 -1.68617 -7.83712 0.968405 0.0760312 0.23751 183 198 216
-11.052 -1.61963 -7.79606 0.987556 0.122536 0.0985821 181 194 207
-11.0299 -1.66093 -7.79645 0.977009 0.1068 0.184522 185 198 211
-11.0443 -1.59376 -7.75692 0.992195 0.0845313 0.0916738 180 188 198
-11.0253 -1.6358 -7.75733 0.977124 0.0600037 0.204031 181 192 202
-11.0441 -1.66335 -7.71617 0.986099 0.165891 -0.00941384 151 160 168
-11.0323 -1.61375 -7.71741 0.96674 0.165841 0.194709 178 187 195
-11.0452 -1.59317 -7.679 0.935249 0.251672 0.248938 175 180 186
-11.0479 -1.59282 -7.67866 0.952626 0.226666 0.202796 175 180 186
-11.0409 -1.6394 -7.67742 0.951218 0.268903 0.151247 174 182 189
-11.0537 -1.57003 -7.64008 0.918452 0.303557 0.253572 163 164 167
-11.0505 -1.57076 -7.64178 0.916531 0.300253 0.264233 164 165 169
-11.0498 -1.57183 -7.6425 0.917591 0.298038 0.26306 165 166 170
-11.0346 -1.61209 -7.64206 0.885843 -0.463495 0.0213536 181 186 192
-11.0128 -1.60795 -7.64372 0.887297 -0.446184 0.116724 181 187 193
-11.0507 -1.5924 -7.60399 0.86958 -0.401242 0.287812 175 178 184
-11.0443 -1.59368 -7.60653 0.87932 -0.43498 0.193878 176 179 185
-11.069 -1.59829 -7.60453 0.882844 -0.465602 0.0616486 176 179 184
-11.0516 -1.64552 -7.60493 0.844086 0.518135 0.138039 170 179 188
-11.0814 -1.55772 -7.60524 0.957528 0.159271 0.24036 144 140 142
-11.0619 -1.63065 -7.57213 0.860015 0.508468 0.0428337 174 184 194
-11.0692 -1.614 -7.5392 0.860283 0.502617 0.0853766 173 182 193
-11.09 -1.58123 -7.53911 0.856152 0.506624 0.101667 161 163 169
-11.094 -1.56239 -7.57226 0.914328 0.383424 0.130351 148 144 146
-11.1138 -1.54927 -7.53883 0.887275 0.424643 0.180062 136 128 127
-11.0788 -1.61916 -7.4964 0.718987 0.135798 0.681628 173 181 193
-11.0935 -1.59295 -7.43532 0.884647 0.443136 0.145019 165 170 176
-11.1098 -1.57599 -7.46802 0.782089 0.60962 0.129231 148 148 152
-11.0945 -1.58854 -7.50117 0.848337 0.51508 0.122544 163 167 174
-11.1016 -1.56622 -7.5062 0.865422 0.48607 0.121577 143 141 144
-11.1064 -1.5554 -7.50199 0.900812 0.408916 0.14603 136 130 132
-11.125 -1.5436 -7.46866 0.871964 0.445151 0.203764 134 126 125
-11.1126 -1.58058 -7.40159 0.838267 0.509799 0.193426 146 146 148
-11.1148 -1.55976 -7.43526 0.845104 0.51311 0.150057 135 130 131
-11.1049 -1.59927 -7.36824 0.827974 0.530768 0.180957 169 172 176
-11.1112 -1.55793 -7.43531 0.865642 0.47839 0.147675 134 130 130
-11.1367 -1.54772 -7.40128 0.828724 0.537461 0.156051 128 119 116
-11.1228 -1.56586 -7.36861 0.831158 0.522921 0.189026 132 125 123
-11.1205 -1.58594 -7.33466 0.839477 0.514639 0.17443 150 147 147
-11.1366 -1.55109 -7.3351 0.839288 0.516833 0.16876 130 117 113
-11.1428 -1.53145 -7.3687 0.882759 0.469251 0.0232669 127 112 106
-11.131 -1.57103 -7.30135 0.854333 0.481284 0.196164 135 126 124
-11.1562 -1.51727 -7.33519 0.793817 0.593636 0.132103 130 111 104
-11.1507 -1.53707 -7.30153 0.831807 0.525042 0.180078 130 113 107
-11.1639 -1.523 -7.26796 0.826523 0.540625 0.156795 130 110 103
-11.1239 -1.55169 -7.26964 0.940092 0.293337 0.173724 130 117 113
-11.1216 -1.56518 -7.22192 0.930165 0.339194 0.140498 131 121 118
-11.096 -1.51418 -7.18312 0.991048 -0.0481552 0.124518 129 109 103
-11.089 -1.48982 -7.22533 0.987027 -0.0365456 0.156343 131 109 101
-11.1317 -1.54694 -7.18658 0.940458 0.316967 0.122762 128 112 107
-11.1214 -1.53579 -7.11637 0.990635 0.0093196 0.136222 129 111 105
-11.0857 -1.50849 -7.08893 0.961366 -0.255216 0.103154 130 109 102
-11.0984 -1.48624 -7.13791 0.975266 -0.125535 0.181927 131 108 100
-11.1702 -1.53461 -7.14862 0.872113 0.482978 0.0784283 128 109 102
-11.134 -1.49416 -7.04166 0.990788 0.00133878 0.135418 131 108 99
-11.1389 -1.44944 -7.03548 0.825543 -0.112362 0.55304 129 106 97
-11.0813 -1.45931 -7.08953 0.996157 0.0119415 0.0867664 131 107 98
-11.0717 -1.4503 -7.08874 0.810263 -0.422716 -0.405937 132 107 98
-11.1317 -1.51703 -7.00067 0.980173 0.019414 0.197192 130 110 103
-11.1905 -1.50203 -6.94991 0.75843 0.651753 0.0014604 130 108 100
-11.1977 -1.50507 -6.9467 0.739236 0.673123 0.0209063 130 109 101
-11.1209 -1.46882 -6.99682 0.964115 0.00551817 0.265429 132 107 99
-11.1963 -1.48629 -6.98424 0.770395 0.611118 0.181733 129 106 99
-11.1898 -1.50296 -6.95096 0.772835 0.634431 0.0149399 130 108 100
-11.1482 -1.45838 -6.95816 0.961068 0.133826 0.24174 131 107 99
-11.153 -1.45776 -6.95938 0.957563 0.168805 0.23362 131 107 98
-11.1513 -1.45803 -6.96047 0.959031 0.152386 0.238828 131 107 98
-11.1611 -1.46912 -6.91065 0.83107 0.545052 0.110643 131 107 99
-11.2122 -1.49046 -6.91126 0.69877 0.712608 -0.0625406 129 107 99
-11.2025 -1.48644 -6.91508 0.707554 0.703588 -0.0658166 130 107 99
-11.1875 -1.45037 -6.91953 0.859384 0.510036 -0.0363767 131 106 98
-11.1688 -1.50013 -6.86575 0.85781 0.513602 0.0193689 138 117 111
-11.1797 -1.49732 -6.86589 0.818659 0.574279 0.00132799 135 114 107
-11.1545 -1.45391 -6.87367 0.825514 0.529293 -0.195897 130 106 99
-11.1737 -1.47699 -6.83377 0.779552 0.539757 -0.317745 130 108 101
-11.1203 -1.42796 -6.84664 0.99499 -0.00308889 0.099925 128 105 97
-11.122 -1.44265 -6.81086 0.706059 0.537794 -0.460715 128 106 98
-11.0887 -1.39358 -6.7932 0.942251 -0.0089384 -0.334788 128 103 95
-11.0854 -1.39953 -6.81927 0.923317 0.32984 -0.196702 129 105 97
-11.0835 -1.43733 -6.7186 0.986653 -0.00369823 -0.162797 111 88 78
-11.0885 -1.41407 -6.75805 0.909117 0.189062 -0.371163 122 97 89
-11.0826 -1.39124 -6.71871 0.989791 0.0233173 -0.140608 109 85 76
-11.0504 -1.41226 -6.66339 0.555476 0.148201 -0.81822 156 136 123
-11.0721 -1.41516 -6.6069 0.503239 0.836228 0.217885 172 156 141
-11.0446 -1.34442 -6.63502 0.993623 0.0809289 -0.0785158 169 152 137
-11.0839 -1.40071 -6.57013 0.962718 0.269854 0.0187701 166 153 140
-11.1087 -1.36702 -6.56457 0.995871 0.0550313 -0.0721987 163 151 138
-11.0871 -1.34939 -6.57934 0.862972 0.151943 0.481863 168 154 141
-11.0909 -1.38031 -6.53238 0.852661 0.0283225 0.521697 126 119 109
-11.0904 -1.34873 -6.57924 0.884185 0.162951 0.437794 168 154 141
-11.056 -1.3966 -6.50067 0.799227 0.02038 -0.600684 75 73 70
-11.0784 -1.35966 -6.4902 0.978293 -0.115281 0.1722 73 71 68
-11.0809 -1.34654 -6.3808 0.986745 0.113993 -0.115501 88 87 87
-11.0649 -1.2956 -6.38836 0.88656 -0.0533429 0.459528 82 83 82
-11.0879 -1.32615 -6.33874 0.84654 0.107143 0.521431 118 115 110
-11.0753 -1.30579 -6.30614 0.971092 0.0215625 0.237731 167 157 148
-11.0833 -1.33522 -6.25701 0.998287 0.0276682 0.0515453 176 162 150
-11.0819 -1.2752 -6.25744 0.98587 -0.0221511 -0.166042 174 159 148
-11.0842 -1.33448 -6.21777 0.966118 0.0209654 0.257247 162 145 133
-11.0752 -1.3034 -6.17506 0.964569 -0.132413 -0.228197 124 102 92
-11.0721 -1.27377 -6.22229 0.966452 -0.0503026 0.251875 158 140 128
-3.70957 -0.691864 -9.77858 -0.399868 0.692424 0.600545 99 68 57
-3.7621 -0.720414 -9.7856 -0.25956 0.849167 0.459938 94 67 52
-9.52596 -1.76653 -10.0161 0.087198 0.559557 0.824192 88 78 66
-10.9924 -1.67753 -8.3243 0.819187 -0.132895 -0.557917 157 173 193
-10.9684 -1.60066 -8.36277 0.975993 0.215523 0.0314151 110 126 149
-10.9853 -1.62768 -8.32426 0.985227 0.153776 0.0753732 144 161 182
-10.9632 -1.65418 -8.26563 0.809515 -0.2945 -0.507894 159 176 196
-10.9489 -1.59757 -8.28191 0.812925 -0.35465 -0.461927 147 163 184
-10.994 -1.66392 -8.1779 0.993123 0.113979 0.0267394 153 172 194
-10.9717 -1.62902 -8.21817 0.809675 -0.347272 -0.473106 146 164 185
-10.9903 -1.61525 -8.17763 0.994848 0.081665 0.0600696 139 160 183
-10.9769 -1.58473 -8.21722 0.979116 0.107578 0.172509 145 163 185
-10.9955 -1.64026 -8.13735 0.990014 0.137 0.0332246 144 166 190
-10.9985 -1.56983 -8.17776 0.994142 0.107911 0.00604406 137 157 179
-10.9693 -1.61094 -8.09668 0.99741 0.00427979 0.0717991 139 163 189
-10.9965 -1.59268 -8.13738 0.98609 -0.138678 -0.09163 143 166 190
-10.9774 -1.58914 -8.13895 0.961969 -0.226356 -0.1529 143 166 190
-10.9653 -1.56161 -8.09652 0.971322 -0.0564087 0.23098 137 160 185
-10.9666 -1.58545 -8.0547 0.84093 -0.169841 0.5138 135 160 187
-10.9902 -1.58884 -8.01486 0.995914 -0.0897997 -0.00954619 125 151 179
-10.9798 -1.58888 -7.92775 0.989454 -0.0921597 -0.111749 112 136 166
-10.9785 -1.56146 -7.97268 0.998932 -0.0320653 0.0332657 115 140 168
-10.9759 -1.53711 -8.01473 0.985247 -0.054604 0.162192 122 146 172
-10.9762 -1.61061 -7.97003 0.777574 -0.182205 -0.601814 123 148 179
-11.0114 -1.56778 -7.8828 0.971491 -0.115317 0.207139 144 164 187
-10.9921 -1.51202 -7.88292 0.986178 -0.00689581 0.165548 141 160 180
-11.0579 -1.60238 -7.84281 0.789106 -0.287182 -0.54299 173 190 208
-11.0149 -1.52225 -7.88584 0.983915 -0.139816 0.111185 139 157 178
-10.9847 -1.53549 -7.92328 0.983253 -0.100184 0.152238 115 137 162
-11.0484 -1.59487 -7.83749 0.749593 -0.21151 -0.627195 174 190 208
-11.0447 -1.52252 -7.79592 0.998302 -0.000867516 0.0582411 171 181 191
-11.0487 -1.57084 -7.79583 0.999995 0.00150079 0.00269198 175 187 199
-11.0202 -1.54088 -7.83727 0.970927 -0.139512 0.194518 169 183 199
-11.0576 -1.55518 -7.84265 0.997195 0.0414405 0.0623353 168 183 199
-11.0401 -1.52737 -7.72118 0.786286 0.0316332 0.617053 137 136 140
-11.0344 -1.49644 -7.75623 0.962457 0.0653847 0.263441 160 162 167
-11.0376 -1.56795 -7.71736 0.967475 0.128295 0.218018 165 170 177
-11.0601 -1.54886 -7.75485 0.98977 -0.0112405 0.142228 165 171 178
-11.0659 -1.48601 -7.68616 0.875441 -0.0764815 0.477236 125 113 110
-11.052 -1.5472 -7.67874 0.953681 0.103658 0.282396 141 138 141
-11.078 -1.53119 -7.63955 0.916868 0.101397 0.386098 127 117 115
-11.0807 -1.55635 -7.60464 0.963487 0.137016 0.230043 143 139 140
-11.0943 -1.52433 -7.57289 0.96336 0.143508 0.226589 128 116 113
-11.0889 -1.50192 -7.60894 0.883087 0.00348014 0.469197 127 110 106
-11.1018 -1.48233 -7.57285 0.95602 0.106441 0.273306 128 109 103
-11.1 -1.5132 -7.50362 0.975024 0.195647 0.105119 133 120 117
-11.1142 -1.48188 -7.50451 0.923185 0.353339 0.151266 132 115 109
-11.1222 -1.51662 -7.50166 0.898398 0.41956 0.129808 133 119 116
-11.1369 -1.50577 -7.53556 0.868682 0.486685 0.0923533 129 112 107
-11.1131 -1.48004 -7.50414 0.92652 0.347117 0.145159 132 115 109
-11.1352 -1.46596 -7.53656 0.875405 0.445023 0.188734 130 110 102
-11.1358 -1.46452 -7.53612 0.871039 0.478575 0.11071 130 110 102
-11.1343 -1.52647 -7.43531 0.847025 0.522631 0.0969805 137 125 122
-11.1307 -1.5241 -7.43525 0.8557 0.507995 0.0985809 137 125 122
-11.1573 -1.5119 -7.46724 0.71322 0.676515 0.183423 138 123 119
-11.157 -1.51019 -7.46688 0.719028 0.670774 0.18183 138 123 118
-11.1489 -1.49259 -7.43575 0.773372 0.615354 0.152432 140 124 118
-11.142 -1.48929 -7.43591 0.837 0.532364 0.126566 140 124 118
-11.1415 -1.45251 -7.43756 0.816574 0.572988 -0.0699401 135 114 106
-11.149 -1.51301 -7.40203 0.809035 0.574533 0.123992 132 116 110
-11.1695 -1.50294 -7.30177 0.766897 0.607636 0.206513 132 110 103
-11.1134 -1.45419 -7.30969 0.861601 0.416264 0.290461 133 109 101
-11.1277 -1.45994 -7.30153 0.891691 0.375405 0.2529 133 109 101
-11.1384 -1.44386 -7.26769 0.895623 0.385981 0.221083 132 108 99
-11.1052 -1.38903 -7.20364 0.695721 0.0726808 -0.714625 133 108 99
-11.1217 -1.42293 -7.2353 0.908347 0.409319 -0.0858163 132 108 99
-11.1438 -1.46407 -7.23361 0.856503 0.473607 0.205178 132 108 99
-11.161 -1.44578 -7.13395 0.825851 0.335778 -0.453016 131 107 99
-11.1495 -1.42686 -7.16737 0.687358 0.0599017 -0.723844 130 107 98
-11.1172 -1.39762 -7.13732 0.647246 -0.0193999 -0.762034 132 108 99
-11.1431 -1.41889 -7.103 0.717783 0.101185 -0.688875 131 107 98
-11.1663 -1.42702 -6.99034 0.696352 -0.180626 -0.6946 133 107 99
-11.1532 -1.34739 -6.97614 0.600114 -0.380486 -0.70363 134 109 101
-11.0941 -1.34894 -6.79612 0.925916 -0.0469683 -0.374798 130 104 95
-11.0736 -1.3448 -6.72025 0.992883 -0.119091 0.000944652 110 85 75
-11.0918 -1.37325 -6.75878 0.933477 -0.00819045 -0.358545 122 97 88
-11.0949 -1.37319 -6.76104 0.902298 0.0833977 -0.422968 123 98 89
-11.0791 -1.31971 -6.6228 0.973372 0.134635 0.185526 170 153 138
-11.112 -1.28768 -6.61243 0.863557 0.149445 0.481596 171 153 139
-11.1061 -1.30662 -6.5755 0.573766 0.643209 0.507026 167 152 138
-11.1067 -1.30742 -6.57608 0.914734 0.131475 0.382069 168 153 140
-11.0773 -1.30287 -6.48733 0.981063 0.0341377 0.190657 73 72 70
-11.0872 -1.25305 -6.48337 0.725085 0.678686 0.116779 68 67 65
-11.0834 -1.26234 -6.43865 0.968668 -0.0400808 -0.245105 87 90 92
-11.0795 -1.23918 -6.3987 0.995273 -0.00198784 -0.0971006 87 89 90
-11.0798 -1.24683 -6.30547 0.955389 0.0854725 0.282713 166 156 146
-11.0619 -1.21527 -6.35551 0.966691 0.00794384 0.255823 108 103 98
-11.1102 -1.22111 -6.25379 0.891359 0.112242 0.439181 173 159 148
-9.50595 -1.69456 -10.025 0.0914352 0.502663 0.859634 76 68 56
-10.856 -1.81097 -9.66656 0.953192 -0.238356 0.186042 51 51 52
-10.9618 -1.57588 -8.32302 0.984167 0.139293 -0.109602 126 139 161
-10.9682 -1.5289 -8.323 0.916522 0.395716 -0.05828 95 100 120
-10.95 -1.54948 -8.28156 0.765038 -0.253875 -0.591832 117 128 148
-10.9644 -1.53932 -8.21532 0.82874 0.504969 -0.24124 129 145 166
-10.9698 -1.50739 -8.28573 0.874802 0.395334 -0.28006 67 70 90
-10.977 -1.48375 -8.24836 0.987033 0.119972 0.106646 88 92 113
-10.9702 -1.51745 -8.17617 0.98544 0.16982 0.00827384 133 150 171
-10.9809 -1.54282 -8.1374 0.990846 0.0947093 0.0962023 131 152 174
-10.9771 -1.47381 -8.12919 0.993318 0.102904 0.0522462 117 135 155
-10.9695 -1.48561 -8.16796 0.997103 0.0611227 0.0452736 129 145 165
-10.9846 -1.46908 -8.05092 0.953872 0.297091 0.0431863 105 125 143
-10.9809 -1.51905 -8.05613 0.987509 0.0992025 0.122411 124 147 170
-10.9723 -1.49384 -8.09427 0.923106 0.382577 -0.0388609 122 143 164
-10.9568 -1.4566 -7.97308 0.915172 0.380379 0.133314 94 113 133
-10.9998 -1.51859 -7.97555 0.961009 0.158575 -0.226531 113 135 160
-10.9888 -1.49234 -8.01331 0.992228 0.123378 -0.0161526 112 134 156
-11.0042 -1.45107 -8.00678 0.824167 0.555027 -0.112669 93 111 127
-10.9918 -1.45064 -7.93776 0.904865 0.419723 0.0710781 85 102 120
-10.9722 -1.48483 -7.93798 0.982058 0.0771771 0.172063 101 121 143
-10.9928 -1.49023 -7.92324 0.988602 0.14168 -0.0509167 104 123 145
-11.0063 -1.43562 -7.90359 0.843668 0.0206627 0.536467 112 127 144
-10.9832 -1.46831 -7.90412 0.971665 0.205958 0.115969 110 127 146
-11.0365 -1.4531 -7.84284 0.988953 -0.144665 0.032328 170 182 195
-11.0474 -1.42841 -7.88906 0.910152 -0.258757 0.323524 131 145 161
-11.0442 -1.47601 -7.79594 0.99864 0.00704736 0.0516516 173 180 189
-11.0483 -1.50459 -7.84276 0.994309 -0.0721375 0.0783995 166 180 194
-11.0399 -1.43116 -7.79616 0.997312 -0.0714208 -0.0163513 177 183 191
-11.0536 -1.43141 -7.79566 0.994703 -0.0448144 0.0925134 177 183 191
-11.0604 -1.40726 -7.75382 0.999058 0.0204379 0.0382883 165 162 165
-11.0377 -1.44538 -7.72644 0.87139 -0.159144 0.464061 136 128 127
-11.0507 -1.47569 -7.71654 0.660083 0.0303161 0.750581 127 120 119
-11.1729 -1.44967 -7.68175 0.75058 0.0455571 -0.659207 124 110 104
-11.1352 -1.47668 -7.64333 0.770489 -0.585697 -0.251606 126 110 104
-11.1038 -1.43864 -7.57295 0.75337 -0.159399 0.637985 130 108 100
-11.084 -1.38454 -7.6075 0.800983 -0.587338 0.11602 131 108 99
-11.1096 -1.35974 -7.46649 0.675588 -0.221545 -0.703206 136 110 102
-11.0859 -1.40568 -7.44361 0.75683 0.492976 -0.429166 131 109 101
-11.1037 -1.35605 -7.40001 0.735953 -0.290488 -0.611548 136 110 101
-11.0779 -1.36891 -7.36849 0.575613 -0.258234 -0.775877 136 109 101
-11.1089 -1.33647 -7.36426 0.748125 -0.332025 -0.574516 136 110 102
-11.1512 -1.33977 -7.36382 0.994206 -0.00208643 -0.107472 134 110 102
-11.095 -1.32686 -7.30321 0.92246 0.383655 0.043306 135 109 102
-11.1116 -1.37872 -7.29979 0.61305 0.192148 -0.766322 134 109 100
-11.1148 -1.3359 -7.30024 0.959655 0.244742 0.138433 134 110 102
-11.1087 -1.3156 -7.26797 0.981918 0.189114 0.00855577 134 109 102
-11.1052 -1.33396 -7.23806 0.739033 0.154418 -0.655733 132 108 100
-11.1019 -1.34621 -7.26983 0.842564 0.529915 -0.0963126 133 109 100
-11.0939 -1.39663 -7.27015 0.641473 -0.0300942 -0.766556 133 108 99
-11.1125 -1.29871 -7.16773 0.970729 0.239663 0.0157453 124 102 96
-11.1011 -1.31694 -7.20409 0.881747 0.433459 -0.186106 128 105 98
