ply
format ascii 1.0
element vertex 723
property float x
property float y
property float z
property float nx
property float ny
property float nz
property uchar diffuse_red
property uchar diffuse_green
property uchar diffuse_blue
end_header
-2.03889 -1.39827 1.51849 -0.144452 -0.0214917 -0.989278 133 132 133
-2.0168 -1.34847 1.50938 -0.147051 -0.0156562 -0.989005 137 137 138
-1.97091 -1.3408 1.48541 -0.452014 -0.610329 -0.650525 106 106 106
-1.88546 -1.32905 1.41282 -0.441392 -0.6202 -0.648478 103 96 92
-1.84951 -1.32907 1.46899 -0.79054 -0.39023 -0.471983 90 85 79
-1.26468 -1.32434 1.56541 -0.14378 -0.105211 -0.984001 101 94 91
-9.93224 -1.54195 0.888589 -0.00325796 0.508104 -0.861289 91 70 58
-9.8509 -1.53806 0.873959 -0.0101328 0.422416 -0.906345 91 70 57
-9.65563 -1.47617 0.835786 -0.314153 0.538092 -0.782154 90 71 59
-9.63191 -1.52823 0.833945 0.145704 0.964612 -0.219759 94 72 60
-9.62207 -1.50984 0.86238 0.381333 -0.547226 -0.745069 91 71 58
-9.64547 -1.48827 0.904373 0.186633 0.697113 -0.692244 83 65 53
-9.60405 -1.5414 0.912097 -0.00297776 0.423674 -0.90581 92 76 62
-9.56136 -1.5058 0.931761 0.235991 0.55923 -0.794714 149 143 133
-9.53611 -1.53587 0.948365 -0.149255 0.849472 -0.506083 151 152 145
-9.46448 -1.53322 0.936862 0.29447 0.545692 -0.784543 142 145 145
-9.45105 -1.53062 0.928455 0.335917 0.130785 -0.932767 140 143 144
-9.39278 -1.52827 0.94005 0.253131 -0.00677404 -0.967408 99 100 107
-9.38793 -1.49505 0.977887 0.307453 0.378337 -0.873118 160 162 164
-9.29475 -1.51405 0.955631 0.0550824 -0.183797 -0.98142 139 138 145
-9.33099 -1.522 0.945301 -0.0586222 0.124944 -0.990431 116 114 124
-9.24471 -1.53878 0.940438 -0.0348708 0.457249 -0.888655 100 99 111
-9.17646 -1.53806 0.948747 0.0224803 0.182067 -0.983029 95 94 105
-9.19313 -1.48245 0.93886 0.0574097 0.157098 -0.985913 164 164 166
-9.11644 -1.48987 0.959152 0.0818386 -0.0426317 -0.995733 163 164 164
-9.0807 -1.48587 0.945649 0.015509 0.302971 -0.952873 163 162 163
-9.14162 -1.49377 0.96013 0.0260301 -0.263261 -0.964373 163 164 165
-9.04692 -1.49171 0.964141 -0.00858686 -0.217081 -0.976116 166 165 165
-8.98939 -1.48753 0.963656 0.0599448 0.0209924 -0.997981 165 165 165
-8.9844 -1.48552 0.959712 0.0683569 -0.000612885 -0.997661 165 165 165
-8.91914 -1.48981 0.963193 0.0507842 -0.0355243 -0.998078 165 163 167
-8.8511 -1.48871 0.962031 0.0216958 0.0895921 -0.995742 165 163 166
-8.75447 -1.49013 0.969909 0.26349 0.0968661 -0.959786 171 167 164
-8.73428 -1.48589 0.986802 -0.0214681 -0.43152 -0.901848 175 172 166
-8.70235 -1.48543 0.968988 0.288971 0.277278 -0.916304 177 173 168
-8.65771 -1.50155 1.00609 -0.106292 -0.392193 -0.913721 171 159 155
-8.57172 -1.47807 1.05044 0.435379 0.352029 -0.828566 165 145 137
-8.46752 -1.49574 1.00065 -0.482334 -0.0922275 -0.871119 111 77 63
-8.41748 -1.49823 0.987975 -0.295348 0.0851261 -0.95159 163 130 113
-8.35727 -1.47519 0.966157 0.0580299 0.0291344 -0.99789 169 138 119
-8.30385 -1.47336 0.962768 0.244381 -0.0615342 -0.967725 142 116 99
-8.25379 -1.46775 0.958858 -0.272332 0.0646476 -0.960029 82 63 51
-8.25239 -1.46831 0.966474 0.790057 -0.196458 -0.580702 82 63 52
-8.20664 -1.4719 0.956799 -0.282387 0.403872 -0.870141 82 70 63
-8.18734 -1.42741 0.963495 0.00817968 -0.366306 -0.930458 83 73 68
-8.13745 -1.44338 0.940932 0.0355099 -0.423606 -0.90515 91 85 79
-8.0897 -1.44654 0.94518 -0.059172 -0.03283 -0.997708 102 86 77
-8.08928 -1.4395 0.935012 -0.129118 -0.0300362 -0.991174 98 83 75
-8.0894 -1.44426 0.936877 -0.0155216 0.04578 -0.998831 99 84 75
-7.99822 -1.4201 0.912484 0.158588 0.124699 -0.979439 173 140 118
-7.9722 -1.47279 0.970923 0.591298 -0.122913 -0.797031 177 140 120
-7.92627 -1.44816 0.99259 0.585711 -0.122572 -0.801198 129 95 79
-7.89068 -1.47504 1.00647 0.0783645 -0.00711015 -0.996899 114 80 65
-7.85541 -1.4662 1.01776 0.268622 0.172034 -0.947759 121 86 72
-7.84116 -1.46892 0.999699 -0.0297829 -0.193672 -0.980614 124 89 73
-7.74336 -1.42093 1.02062 0.0628451 -0.344905 -0.936531 133 95 78
-7.3154 -1.42813 1.04911 0.210951 0.291678 -0.932965 135 95 77
-7.21024 -1.45631 1.03863 0.432631 0.76829 -0.471764 137 97 80
-7.12269 -1.443 1.06583 0.728625 0.590419 -0.347148 138 98 81
-7.04371 -1.43577 1.0587 0.00223732 0.227628 -0.973746 139 98 82
-7.00005 -1.43567 1.05862 0.0207973 0.26895 -0.96293 139 98 83
-6.9338 -1.39793 1.06357 0.121166 0.167549 -0.97839 142 101 86
-4.57775 -1.32293 1.15981 0.180948 -0.00274392 -0.983489 44 39 35
-4.33871 -1.3236 1.19445 -0.0148784 -0.133558 -0.990929 139 129 118
-4.20336 -1.34062 1.20193 0.104117 0.182672 -0.977645 106 93 84
-4.21832 -1.33626 1.19352 0.0568129 0.166186 -0.984457 106 93 84
-4.02708 -1.32612 1.32406 0.10153 0.0995044 -0.989844 103 87 79
-3.81453 -1.36936 1.33263 0.335911 0.328321 -0.882819 116 94 81
-3.73643 -1.37133 1.35436 0.172018 0.270179 -0.947319 108 95 88
-3.71372 -1.33878 1.31413 -0.495015 -0.600429 -0.628049 111 95 89
-3.67887 -1.35907 1.33363 0.303748 0.476841 -0.824839 109 93 84
-3.58278 -1.31862 1.31731 0.188706 0.196588 -0.962156 110 92 85
-3.33085 -1.37711 1.4337 -0.245345 -0.202789 -0.947989 85 78 70
-3.26168 -1.31925 1.40495 -0.146481 0.0615814 -0.987295 74 72 66
-3.28979 -1.37363 1.41102 -0.167275 -0.0934649 -0.98147 76 71 64
-3.30335 -1.32697 1.42139 -0.308419 -0.287605 -0.906731 81 75 67
-3.28528 -1.37065 1.41057 -0.204781 -0.0542886 -0.977301 74 69 62
-3.30235 -1.3311 1.42943 -0.366244 -0.469798 -0.803216 80 75 66
-3.31615 -1.31999 1.41455 -0.149081 0.153548 -0.976831 82 76 68
-3.18975 -1.32728 1.40819 -0.099277 0.0257629 -0.994726 137 143 141
-3.26091 -1.3216 1.40411 -0.139932 -0.0450555 -0.989136 76 74 68
-3.25578 -1.32217 1.40336 -0.165214 0.00938656 -0.986213 87 85 79
-3.1115 -1.33743 1.41821 -0.151165 0.0250755 -0.98819 70 81 89
-3.11145 -1.32908 1.42122 -0.0900329 0.073729 -0.993206 70 81 88
-3.07346 -1.32265 1.40144 -0.370268 -0.415259 -0.83094 36 48 61
-3.04671 -1.35583 1.41005 -0.329826 -0.531617 -0.780127 37 52 67
-2.97626 -1.33505 1.45746 0.163099 0.271289 -0.948578 32 43 53
-2.82441 -1.31107 1.44114 -0.164451 0.095704 -0.981731 42 58 75
-2.70525 -1.33144 1.49394 -0.101899 -0.0955194 -0.990198 42 57 71
-2.77435 -1.3272 1.49247 -0.345626 -0.530639 -0.773928 37 52 66
-2.77649 -1.36175 1.46339 0.295017 0.658778 -0.692081 32 47 61
-2.77649 -1.36175 1.46339 0.295017 0.658778 -0.692081 32 47 61
-2.77649 -1.36175 1.46339 0.295017 0.658778 -0.692081 32 47 61
-2.57228 -1.31534 1.48491 -0.162766 -0.0888148 -0.982659 35 46 60
-2.63485 -1.32202 1.48001 -0.277559 -0.320789 -0.905569 47 61 77
-2.46245 -1.33602 1.50142 -0.0180907 0.160418 -0.986883 33 42 54
-2.38292 -1.34323 1.51227 0.127001 0.401016 -0.907225 37 43 53
-2.38407 -1.34316 1.51335 0.149343 0.429748 -0.890513 35 42 50
-2.3204 -1.34144 1.51831 -0.0063287 0.298732 -0.954316 40 44 52
-2.24984 -1.34268 1.51791 -0.0442132 0.119618 -0.991835 80 81 88
-2.17389 -1.28714 1.51568 0.0735443 0.0171184 -0.997145 64 64 67
-2.07147 -1.27649 1.51362 -0.199898 0.0148569 -0.979704 100 104 106
-1.99976 -1.2835 1.4927 -0.466249 -0.657204 -0.592195 132 133 137
-1.95271 -1.26401 1.41894 -0.455272 -0.65188 -0.606449 105 102 100
-1.2796 -1.27185 1.59077 -0.298856 -0.166752 -0.939616 99 95 93
-1.02885 -1.33036 1.66722 -0.465171 -0.257906 -0.846818 92 89 85
-1.14052 -1.29187 1.60561 -0.123707 -0.205869 -0.970729 88 86 83
-1.05861 -1.25954 1.61916 -0.0516746 0.130582 -0.99009 93 95 97
-0.88411 -1.28361 1.64017 -0.310514 -0.163407 -0.936418 58 61 61
-0.748499 -1.26216 1.63628 -0.158942 0.00491996 -0.987276 117 118 118
-0.485016 -1.2688 1.67907 -0.180098 0.0662012 -0.981418 96 91 85
-0.406149 -1.27489 1.6965 -0.406304 -0.638845 -0.653295 100 96 90
-10.1756 -1.48896 0.897795 -0.0373989 0.2932 -0.955319 111 87 81
-10.0379 -1.47544 0.873802 0.156119 0.334843 -0.929251 83 59 53
-9.93305 -1.47552 0.882048 0.0704475 0.369395 -0.926598 89 68 59
-9.86818 -1.47786 0.886193 -0.0376999 0.498639 -0.865989 90 70 59
-9.7588 -1.48131 0.898325 0.0418183 0.667104 -0.74379 88 69 58
-9.81783 -1.4565 0.921519 0.00131503 0.688993 -0.724767 89 72 63
-9.69961 -1.46207 0.917646 0.116016 0.718214 -0.686083 84 69 59
-9.73099 -1.48448 0.95732 0.270033 0.406179 -0.872984 83 68 58
-9.75279 -1.43623 0.9357 0.107159 0.686617 -0.719079 99 87 79
-9.65 -1.44685 0.941021 0.238577 0.618546 -0.748653 89 77 68
-9.60736 -1.47735 0.938728 0.313812 0.552322 -0.77231 102 90 80
-9.55098 -1.45714 0.949463 0.0240176 0.509108 -0.860367 157 155 148
-9.48734 -1.42431 0.942264 -0.229498 0.781071 -0.58074 151 156 154
-9.45812 -1.48785 0.958113 0.064426 -0.0977019 -0.993128 137 141 141
-9.47661 -1.44938 1.02676 -0.0287187 0.926142 -0.37608 152 158 156
-9.3869 -1.48768 0.962171 0.0244683 -0.394462 -0.918586 160 161 164
-9.33701 -1.493 0.991449 0.0825082 0.956152 -0.28101 161 161 162
-9.23338 -1.44243 0.960492 0.327213 0.206707 -0.922065 161 163 158
-9.14893 -1.43255 0.960154 0.0874596 0.0907184 -0.992029 160 163 156
-9.09387 -1.43441 0.96568 -0.00799058 0.0892581 -0.995976 160 163 154
-9.04443 -1.43871 0.95055 -0.000468367 -0.420762 -0.907171 162 165 158
-8.95377 -1.44135 0.968059 0.0179954 0.359607 -0.93293 164 165 159
-9.00156 -1.4396 0.961442 0.0484417 0.21164 -0.976146 163 165 158
-8.87565 -1.43987 0.960872 0.0204682 0.257305 -0.966114 166 166 162
-8.82018 -1.43953 0.960973 -0.00293031 0.300945 -0.953637 169 168 163
-8.83711 -1.4532 0.985014 0.0819239 0.162397 -0.983319 169 168 164
-8.78316 -1.45426 0.986286 -0.0138794 0.0822767 -0.996513 174 172 165
-8.72911 -1.44841 0.97552 0.307432 0.342374 -0.887843 174 172 164
-8.71145 -1.41151 0.994009 0.347177 0.296127 -0.889819 152 150 140
-8.68683 -1.44908 0.991399 0.488435 0.293881 -0.821624 176 171 164
-8.67784 -1.41431 1.02054 0.689443 0.406019 -0.599847 162 157 149
-8.64117 -1.42031 1.04692 0.711937 0.0657946 -0.699154 174 166 159
-8.5887 -1.4322 1.04324 0.186076 0.434289 -0.881345 174 160 155
-8.5765 -1.42767 1.05806 0.296871 0.0824079 -0.951355 164 147 142
-8.50357 -1.39224 1.00771 -0.470625 0.0534801 -0.880711 102 75 68
-8.49702 -1.42896 1.00107 -0.369109 -0.043652 -0.92836 103 75 65
-8.42279 -1.4162 0.952719 -0.482929 0.000399262 -0.875659 136 103 87
-8.51376 -1.45338 1.02779 0.621555 0.577529 -0.529274 105 76 66
-8.38213 -1.43128 0.965469 0.0176345 0.0112476 -0.999781 168 137 117
-8.32786 -1.42891 0.958668 0.0333234 -0.0202028 -0.99924 160 132 114
-8.30626 -1.38048 0.958535 0.259756 0.0790935 -0.96243 145 120 103
-8.30242 -1.3851 0.958239 0.227715 0.119082 -0.966419 142 117 100
-8.35184 -1.38871 0.960069 0.0258011 0.390701 -0.920156 165 136 116
-8.28072 -1.43099 0.967113 0.166616 0.110998 -0.979754 101 79 64
-8.2612 -1.37956 0.967165 0.0653502 0.337898 -0.938911 81 62 49
-8.22937 -1.42684 0.961236 0.00804044 0.453207 -0.891369 83 68 60
-8.2128 -1.37259 0.941774 -0.321609 0.739679 -0.591137 82 68 60
-8.14145 -1.37351 0.950171 -0.55767 0.463733 -0.688444 91 85 81
-8.06335 -1.40002 0.937181 0.216901 0.32414 -0.920808 146 123 111
-8.06402 -1.39511 0.930636 -0.135799 -0.0441887 -0.989751 141 118 106
-8.06649 -1.40511 0.941686 0.203258 0.311025 -0.928412 143 120 108
-8.03904 -1.35104 0.92527 -0.233168 -0.0349905 -0.971807 162 134 117
-8.08916 -1.36852 0.950839 -0.550044 0.177911 -0.815965 101 85 76
-8.08998 -1.3718 0.950299 -0.54136 0.186281 -0.819895 99 83 74
-8.03979 -1.41144 0.984331 0.727724 0.0965151 -0.679045 167 136 117
-8.03831 -1.41358 0.978438 0.814 0.0953726 -0.572982 167 136 117
-7.96141 -1.41849 0.974188 0.84917 0.264506 -0.457108 171 137 118
-7.95178 -1.39399 1.04268 -0.60099 0.0245905 -0.798878 147 112 96
-7.91837 -1.40368 1.01304 -0.60891 0.0701557 -0.790131 116 81 67
-7.87723 -1.41352 0.995597 0.0432218 -0.0887497 -0.995116 115 80 67
-7.82617 -1.40763 0.98721 0.0307246 -0.110632 -0.993386 126 90 76
-7.85768 -1.38902 1.02639 0.126129 0.355438 -0.926151 121 86 72
-7.78871 -1.41765 1.02198 -0.240118 -0.0200346 -0.970537 133 96 80
-7.75788 -1.36863 0.997857 -0.585467 0.241328 -0.773944 131 95 78
-7.29453 -1.39676 1.06564 -0.0136851 0.439719 -0.898031 137 97 78
-7.27327 -1.36483 1.08043 -0.0413701 0.464598 -0.884555 140 99 81
-7.253 -1.40013 1.06999 -0.123589 0.193161 -0.973352 140 97 80
-7.17693 -1.36712 1.04335 0.508135 0.654884 -0.559398 139 101 83
-7.21125 -1.39017 1.03927 -0.0415424 0.0954073 -0.994571 138 98 81
-7.14331 -1.34565 1.0492 0.184414 0.348474 -0.918998 138 100 82
-7.10307 -1.33895 1.04473 -0.0989281 -0.125116 -0.987198 139 100 82
-7.11816 -1.38704 1.05303 -0.185038 -0.0729246 -0.980022 137 99 81
-7.0686 -1.39332 1.05566 0.0120891 -0.104858 -0.994414 138 98 81
-7.05421 -1.338 1.03798 0.0504998 -0.304405 -0.951203 145 104 87
-6.98251 -1.38764 1.04746 -0.0659126 0.0952105 -0.993273 138 97 81
-6.91127 -1.35993 1.07552 -0.285914 0.385078 -0.877478 142 103 85
-5.50166 -1.30214 1.11666 0.202296 0.0620958 -0.977354 159 154 149
-4.33688 -1.23033 1.20323 0.188024 0.00948207 -0.982119 138 126 116
-4.22162 -1.24046 1.20108 -0.126729 0.126691 -0.983814 100 89 81
-4.21518 -1.24722 1.20842 -0.0315235 0.109181 -0.993522 100 89 82
-4.18812 -1.28571 1.20477 -0.0462915 -0.383101 -0.922546 103 86 76
-3.28712 -1.27111 1.40869 -0.117009 0.0528357 -0.991724 71 69 60
-3.29142 -1.26725 1.40898 -0.153093 0.050788 -0.986906 74 72 62
-3.29166 -1.26872 1.40934 -0.128882 0.0402516 -0.990843 79 75 67
-3.28855 -1.27076 1.41265 -0.312905 -0.117968 -0.94243 81 76 69
-3.32499 -1.2794 1.44645 -0.581941 -0.541863 -0.606407 94 85 78
-3.2313 -1.27037 1.40286 -0.0768422 0.120809 -0.989697 124 126 122
-3.23277 -1.26972 1.40414 -0.122717 0.0527752 -0.991038 121 123 119
-3.14648 -1.28356 1.41927 -0.135358 0.051412 -0.989462 125 134 136
-3.12225 -1.23057 1.41723 -0.0975247 0.115236 -0.988539 86 94 97
-3.08937 -1.28298 1.41246 -0.162332 -0.0417999 -0.98585 38 48 57
-3.02049 -1.22268 1.41199 -0.0897381 0.0665262 -0.993741 58 66 72
-3.03104 -1.28657 1.41066 0.099325 0.374183 -0.92202 39 49 60
-3.07225 -1.23469 1.39937 -0.198044 -0.0903542 -0.97602 60 68 76
-2.92449 -1.24238 1.4444 -0.10484 -0.0128557 -0.994406 37 46 54
-2.95977 -1.28384 1.4399 -0.174282 -0.0691988 -0.982261 38 48 58
-2.8543 -1.25261 1.44688 0.107498 0.574151 -0.811661 47 59 71
-2.79724 -1.28242 1.44409 0.087164 0.427208 -0.899942 41 56 70
-2.78811 -1.25676 1.45667 0.148278 0.328769 -0.932697 41 53 65
-2.68258 -1.27857 1.50323 0.0881472 0.228629 -0.969515 36 48 61
-2.69849 -1.27161 1.49394 -0.0130716 0.0574059 -0.998265 36 48 61
-2.60062 -1.2643 1.48569 0.0796048 0.319739 -0.944156 46 58 72
-2.64181 -1.27118 1.49041 0.0198769 0.243807 -0.96962 43 56 71
-2.52343 -1.27129 1.48661 -0.199879 -0.155785 -0.967357 44 55 68
-2.55202 -1.21982 1.4873 -0.196761 -0.150406 -0.968846 45 58 69
-2.42282 -1.28737 1.51618 0.055025 0.280888 -0.958162 36 45 57
-2.50568 -1.21545 1.49034 -0.0812815 0.0539709 -0.995229 34 47 57
-2.47561 -1.226 1.48705 -0.0901466 0.0377521 -0.995213 37 50 62
-2.46001 -1.20931 1.4816 -0.0202301 0.157211 -0.987358 35 47 59
-2.37213 -1.28139 1.52338 0.0703034 0.12178 -0.990064 30 40 48
-2.42012 -1.21657 1.51608 0.0846749 0.151618 -0.984806 28 41 50
-2.28706 -1.26924 1.5214 -0.0841288 0.0480298 -0.995297 33 42 50
-2.32071 -1.21315 1.52497 -0.15052 0.0782416 -0.985506 43 54 63
-2.20462 -1.27543 1.52841 -0.0753123 0.0414111 -0.9963 45 51 58
-2.27418 -1.20611 1.50545 -0.0206549 0.0260525 -0.999447 35 45 54
-2.15532 -1.22487 1.53902 -0.101675 0.0348454 -0.994207 39 47 56
-2.09197 -1.22535 1.52769 -0.194985 0.0159777 -0.980676 58 64 71
-2.04324 -1.22096 1.50624 -0.199349 0.0138991 -0.97983 130 137 141
-1.99835 -1.21534 1.4825 -0.506409 -0.686991 -0.521146 139 144 150
-1.34417 -1.19626 1.57704 -0.0221381 0.0232246 -0.999485 111 111 110
-1.21712 -1.23891 1.58727 -0.140952 -0.0141744 -0.989915 96 97 96
-0.971705 -1.19747 1.6201 -0.107308 0.0180535 -0.994062 97 103 108
-0.375846 -1.22238 1.69469 -0.0535902 -0.00377745 -0.998556 89 83 75
-10.0224 -1.42721 0.929814 0.0903075 0.225658 -0.970012 124 110 109
-9.91692 -1.42974 0.935557 -0.0190919 0.310071 -0.950522 120 108 103
-9.87211 -1.42922 0.938505 -0.0483956 0.268558 -0.962047 119 107 101
-9.69057 -1.41553 0.941907 0.0246022 0.0754351 -0.996847 138 132 126
-9.58837 -1.4265 0.945181 -0.0845787 -0.00694495 -0.996393 145 140 133
-9.50363 -1.38607 0.918212 -0.117202 0.506845 -0.854033 157 160 156
-9.44846 -1.3548 0.932403 -0.0751995 -0.0194509 -0.996979 153 162 159
-9.37107 -1.35304 0.920935 -0.151962 0.800131 -0.580257 154 160 156
-9.37784 -1.39543 0.981568 -0.0973389 0.842629 -0.529624 152 157 153
-9.28054 -1.37573 0.961777 0.0757765 0.590558 -0.80343 84 87 80
-9.22869 -1.39976 0.949776 0.814137 0.438462 -0.380701 121 124 116
-9.23133 -1.36389 0.987841 0.794779 0.477754 -0.37427 67 69 58
-9.18687 -1.38774 0.975518 0.18773 0.66038 -0.727087 77 79 70
-9.07871 -1.39721 0.970762 0.0635179 0.171335 -0.983163 104 108 96
-9.11728 -1.38069 0.96137 0.151431 0.302696 -0.94098 77 80 68
-9.11322 -1.35399 0.987288 0.24563 0.601133 -0.760464 66 68 54
-9.028 -1.39837 0.976621 0.0379049 0.224647 -0.973703 105 110 97
-9.05734 -1.35442 0.989428 0.0708918 0.432027 -0.89907 68 68 55
-8.97776 -1.39883 0.980391 0.0413146 0.321536 -0.945996 110 113 101
-8.99143 -1.35108 0.973929 0.104167 0.25847 -0.960387 65 67 54
-8.90093 -1.39629 0.970672 -0.0394754 0.851501 -0.522865 124 125 113
-8.90404 -1.36825 1.02644 -0.0398793 0.866401 -0.497754 68 69 55
-8.85334 -1.39998 0.978385 0.0549724 0.275557 -0.959712 128 129 118
-8.78887 -1.37808 0.997242 0.252648 0.658253 -0.709135 71 71 56
-8.73396 -1.37189 0.991732 0.325129 0.248462 -0.912446 75 74 60
-8.69897 -1.37214 1.01556 0.301323 0.545322 -0.782194 97 95 82
-8.69172 -1.37199 1.0072 0.531284 0.0157609 -0.847047 100 98 86
-8.66564 -1.36227 1.04368 0.73509 0.10423 -0.66991 178 174 163
-8.5962 -1.38317 1.04841 0.283171 0.174446 -0.943071 170 159 152
-8.54258 -1.37126 1.03928 -0.477033 -0.0368552 -0.878112 124 103 97
-8.47039 -1.3694 0.997405 -0.380788 0.00521061 -0.924648 104 74 63
-8.41612 -1.37357 0.986216 -0.329643 0.0255118 -0.943761 156 125 107
-8.36884 -1.35094 0.96393 0.350017 0.0563084 -0.935049 166 136 115
-8.32675 -1.34774 0.960815 0.214112 0.0823738 -0.97333 158 131 111
-8.27722 -1.34101 0.965449 -0.136594 0.099201 -0.985648 97 75 61
-8.08639 -1.34471 0.977747 -0.560725 0.475529 -0.677834 120 100 90
-7.94053 -1.3082 1.03501 -0.616543 0.114285 -0.778983 135 100 84
-7.87981 -1.35555 1.03606 0.736428 0.277718 -0.616884 115 81 68
-7.89534 -1.29744 1.01865 0.111381 0.235865 -0.965382 112 78 66
-7.8385 -1.35404 1.03876 0.123705 -0.303734 -0.944692 123 88 74
-7.80382 -1.29169 0.998883 0.32353 0.227826 -0.918381 125 90 75
-7.76644 -1.33622 1.00309 -0.112362 -0.242791 -0.963549 129 93 77
-7.70963 -1.32785 0.980832 0.141956 -0.0950127 -0.985303 134 95 77
-7.66211 -1.32476 0.981731 0.690542 -0.290815 -0.662253 130 95 76
-7.2746 -1.31656 1.09212 0.468201 0.57333 -0.67237 133 94 74
-7.18427 -1.31985 1.06315 0.564384 0.753302 -0.337648 133 95 77
-7.1528 -1.28864 1.04802 0.528086 0.640393 -0.557694 134 95 77
-7.12797 -1.29847 1.04151 0.495906 0.481629 -0.722572 135 96 78
-6.95281 -1.30388 1.04682 0.215173 -0.276056 -0.936746 143 103 85
-6.92536 -1.29069 1.07863 -0.197362 -0.257706 -0.945852 140 100 83
-6.87584 -1.31066 1.06816 -0.240193 -0.105285 -0.964999 142 103 86
-6.8727 -1.27094 1.02811 -0.157945 -0.389995 -0.90717 143 103 87
-5.48059 -1.24723 1.1145 0.435477 0.563112 -0.702328 149 134 127
-4.98323 -1.18618 1.16457 -0.101577 -0.457823 -0.883222 76 33 39
-4.23503 -1.20164 1.22136 0.253275 0.709704 -0.657397 94 80 72
-4.23621 -1.20686 1.22147 0.207214 0.0451742 -0.977252 95 80 73
-3.55783 -1.1918 1.36453 0.124269 0.143499 -0.981817 110 94 85
-3.308 -1.22399 1.42501 -0.419885 -0.565191 -0.71011 95 88 81
-3.26299 -1.21869 1.40734 -0.131807 0.0370973 -0.990581 82 80 74
-3.26141 -1.18361 1.44029 -0.466959 -0.626321 -0.624237 111 104 99
-3.19083 -1.22553 1.41329 -0.124078 0.0202565 -0.992066 127 132 130
-3.22332 -1.17332 1.41458 -0.129541 0.0375027 -0.990865 119 122 119
-3.14704 -1.18118 1.42353 -0.138081 0.0463405 -0.989336 121 127 128
-3.15362 -1.17897 1.42327 -0.138228 0.0466078 -0.989303 125 131 132
-3.01833 -1.19033 1.43142 0.0275594 0.260885 -0.964976 29 37 42
-3.08241 -1.18358 1.41658 -0.193971 -0.089392 -0.976926 29 36 42
-2.93534 -1.20546 1.46129 -0.00558446 0.422548 -0.906323 23 28 32
-2.9709 -1.18964 1.43144 -0.308725 0.286078 -0.90711 24 31 36
-2.88293 -1.2074 1.44806 -0.332156 -0.117826 -0.935836 32 42 50
-2.94222 -1.15582 1.43864 -0.090631 0.0719771 -0.99328 18 26 32
-2.83059 -1.17314 1.43539 -0.5959 -0.562392 -0.573252 36 47 59
-2.79614 -1.19397 1.44729 0.253561 0.500854 -0.827557 37 47 56
-2.70142 -1.2112 1.48276 0.200463 0.414643 -0.887629 34 46 56
-2.76076 -1.21192 1.47041 0.00151861 0.112582 -0.993641 41 53 65
-2.63904 -1.21263 1.49345 0.121609 0.385827 -0.914521 37 51 62
-2.68254 -1.16024 1.49944 0.237974 0.489669 -0.838804 26 37 44
-2.65141 -1.14887 1.48355 -0.0789219 0.0632854 -0.99487 36 49 61
-2.5814 -1.15493 1.49182 -0.0275342 0.0406536 -0.998794 53 66 77
-2.52051 -1.15574 1.49187 -0.0331452 0.0317121 -0.998947 46 59 70
-2.39133 -1.17015 1.5093 -0.0599145 0.0158443 -0.998078 28 41 51
-2.30933 -1.17804 1.52421 -0.052561 0.0375415 -0.997912 45 57 67
-2.23251 -1.18076 1.51268 -0.0992117 0.0526366 -0.993673 44 55 64
-2.1234 -1.17049 1.53427 -0.119354 0.02228 -0.992602 54 64 73
-2.05928 -1.17127 1.52335 -0.243004 0.0929189 -0.965565 105 115 120
-2.01911 -1.16424 1.49608 -0.197979 -0.0913669 -0.975939 139 151 156
-1.90776 -1.17844 1.51253 -0.137349 -0.00135836 -0.990522 116 126 131
-1.85314 -1.13344 1.53338 0.0777474 0.319429 -0.944415 103 116 123
-1.1309 -1.17214 1.61806 -0.0554646 0.140241 -0.988563 110 117 121
-1.0552 -1.10716 1.60682 -0.0867843 0.0472553 -0.995106 136 148 153
-0.894913 -1.1297 1.59376 -0.103369 0.305147 -0.946678 77 83 84
-9.2987 -1.31987 0.931239 0.259974 -0.195626 -0.945592 146 148 144
-9.23808 -1.31932 0.945595 0.369385 -0.104064 -0.923431 73 75 66
-9.15232 -1.34241 0.982287 0.106679 0.304358 -0.946565 70 72 58
-9.17661 -1.29838 0.988605 0.091336 -0.505962 -0.857707 83 84 67
-9.12594 -1.29873 0.995641 0.0677998 -0.466275 -0.882038 86 85 65
-9.05487 -1.29155 0.961565 0.582293 0.0402053 -0.811984 83 77 59
-9.01229 -1.30469 0.973955 0.127598 0.243376 -0.961502 74 67 53
-8.97421 -1.30964 0.998221 0.139015 0.169803 -0.975624 65 60 46
-8.92692 -1.32808 1.00305 0.0409243 0.132417 -0.990349 75 73 59
-8.84195 -1.34256 1.03556 -0.174376 0.808449 -0.562142 76 76 59
-8.76785 -1.33866 1.00905 0.24259 0.377791 -0.893546 79 80 61
-8.78008 -1.33539 1.01204 0.887062 0.412224 -0.207827 79 80 60
-8.75264 -1.32887 1.07785 -0.00627649 0.448064 -0.893979 94 90 72
-8.6971 -1.3348 1.03766 0.37839 0.509123 -0.773055 125 122 107
-8.68923 -1.28981 1.04567 -0.484394 0.467804 -0.739271 149 142 127
-8.6353 -1.33077 1.06689 0.755219 0.0648799 -0.652253 173 165 156
-8.58929 -1.28137 1.0579 0.472341 0.543006 -0.69429 172 159 151
-8.51081 -1.31687 1.02873 -0.519593 0.0449218 -0.853232 99 72 64
-8.50833 -1.30145 1.01759 -0.478929 -0.0720212 -0.874894 100 74 66
-8.44276 -1.27384 0.975491 -0.535989 0.108376 -0.83724 118 87 73
-8.44137 -1.31275 0.988608 -0.487275 -0.0937757 -0.868199 126 94 79
-8.39728 -1.25575 0.967197 -0.217599 0.0178764 -0.975875 163 130 113
-8.35975 -1.28648 0.929902 0.447164 0.0792894 -0.890931 164 134 114
-8.34491 -1.2495 0.959413 -0.00784994 0.000761092 -0.999969 161 133 113
-8.29532 -1.29563 0.961623 0.00623893 0.168601 -0.985665 129 105 89
-8.26641 -1.25378 0.95474 -0.317802 -0.0291618 -0.947709 84 65 51
-8.32606 -1.28962 0.960948 0.0278216 0.165233 -0.985862 157 130 111
-8.29682 -1.24759 0.95357 -0.0797969 0.0522336 -0.995442 136 113 95
-8.22749 -1.2652 0.994763 0.184734 0.147085 -0.97172 81 68 61
-8.2505 -1.29557 0.961705 -0.0344332 0.0513654 -0.998086 78 61 50
-8.21396 -1.30334 0.980964 -0.182857 0.419395 -0.889197 81 69 64
-8.05934 -1.29229 0.996199 -0.221659 0.432862 -0.873784 159 132 114
-7.91442 -1.25598 1.0113 -0.591312 0.1153 -0.798158 112 79 65
-7.9712 -1.24546 1.03735 -0.0747029 -0.022703 -0.996947 160 128 110
-7.87443 -1.25873 1.02161 0.287301 0.134994 -0.94828 117 83 71
-7.83209 -1.25321 1.02267 -0.307987 -0.0315333 -0.950868 126 91 76
-7.76169 -1.28034 0.990393 -0.30659 0.548683 -0.777785 128 92 75
-6.7688 -1.22307 1.1119 -0.280685 0.0630325 -0.957728 134 98 83
-4.99994 -1.15928 1.14832 0.200105 0.0559989 -0.978173 74 32 38
-5.01748 -1.13693 1.15421 0.0585432 0.0981137 -0.993452 82 40 46
-3.78637 -1.13235 1.38586 0.189354 0.0227004 -0.981646 104 89 81
-3.78484 -1.12828 1.38651 0.185086 0.018092 -0.982556 103 89 80
-3.16977 -1.13624 1.43741 -0.239531 -0.252628 -0.937445 130 136 139
-3.08356 -1.13199 1.40585 -0.492294 -0.214879 -0.843489 21 31 37
-3.11235 -1.08477 1.41163 -0.658466 -0.197826 -0.726146 30 42 50
-3.01254 -1.14373 1.42751 -0.359226 0.193458 -0.912979 20 28 33
-3.02999 -1.13421 1.41184 0.0151098 0.240794 -0.970458 17 26 29
-3.01504 -1.10413 1.42479 0.0832085 0.328115 -0.940966 19 30 36
-3.04947 -1.139 1.37739 0.00185254 0.0761955 -0.997091 28 37 43
-2.90159 -1.13206 1.45461 0.255655 0.580367 -0.773185 12 18 22
-2.85386 -1.1303 1.44383 -0.0577906 0.115313 -0.991647 18 27 34
-2.66339 -1.1073 1.50192 -0.435731 -0.629497 -0.643329 27 40 49
-2.62449 -1.10094 1.48371 -0.110984 0.0997209 -0.988806 34 47 58
-2.54167 -1.10809 1.50235 0.146087 0.268709 -0.952079 29 43 50
-2.50095 -1.11265 1.49083 -0.104365 0.00714862 -0.994513 39 52 63
-2.34761 -1.12288 1.52354 -0.095868 0.0619413 -0.993465 31 45 60
-2.41706 -1.1214 1.50538 -0.0747031 0.0490063 -0.996001 27 40 53
-2.36885 -1.11015 1.52518 -0.290418 -0.295214 -0.910223 25 40 54
-2.35179 -1.12186 1.51268 -0.132946 -0.00766574 -0.991094 34 48 62
-2.31664 -1.07199 1.50681 -0.266174 -0.222305 -0.93794 48 63 83
-2.29347 -1.12109 1.50275 -0.134875 -0.0102678 -0.990809 44 57 72
-2.30509 -1.11103 1.50544 -0.185857 -0.101597 -0.97731 42 56 72
-2.26038 -1.06436 1.49134 -0.235219 -0.189233 -0.953343 139 151 164
-2.2089 -1.12361 1.50679 -0.0986848 0.0524949 -0.993733 77 89 100
-2.10549 -1.10659 1.53199 -0.0927775 0.0424968 -0.994779 108 119 120
-2.02952 -1.12067 1.52086 -0.139151 0.0332957 -0.989711 137 152 157
-2.02647 -1.05591 1.49904 -0.159788 0.0431875 -0.986206 161 179 183
-2.0774 -1.05924 1.51689 -0.141677 0.0212871 -0.989684 155 169 170
-1.99856 -1.1108 1.49019 -0.0926903 0.0371067 -0.995003 126 141 148
-1.94368 -1.11844 1.51587 -0.130441 0.0100396 -0.991405 113 128 136
-1.92743 -1.06599 1.51207 -0.0942187 0.0434422 -0.994603 159 175 183
-1.89371 -1.08691 1.5571 -0.0379231 -0.11976 -0.992078 156 174 180
-1.08904 -1.0935 1.62433 -0.0826723 0.126083 -0.988569 140 154 160
-0.958444 -1.05089 1.61091 -0.251818 0.195171 -0.94789 110 119 122
-0.872462 -1.05025 1.59965 -0.149029 0.217176 -0.964689 86 90 90
-0.47976 -1.0358 1.71336 -0.0556893 -0.0075176 -0.99842 142 147 145
-9.00056 -1.24246 0.987853 0.094173 -0.121378 -0.988129 109 91 74
-8.92437 -1.23767 0.993838 0.195957 -0.440986 -0.875861 33 27 14
-8.86044 -1.22769 0.997191 0.397859 -0.287067 -0.871378 88 85 68
-8.76677 -1.28089 1.07683 0.133951 -0.304349 -0.943096 100 95 73
-8.69743 -1.26022 1.0344 0.340658 -0.14761 -0.928528 132 126 107
-8.73142 -1.22736 1.04324 0.389361 -0.136986 -0.910842 108 103 80
-8.65287 -1.24288 1.04546 0.355599 0.38421 -0.852016 175 167 154
-8.56008 -1.24532 1.05206 -0.478481 0.0598302 -0.876057 143 125 119
-8.56465 -1.2437 1.05908 -0.371495 -0.0754071 -0.925368 144 127 121
-8.61866 -1.25063 1.04935 0.538319 0.200213 -0.818613 175 166 157
-8.49644 -1.23033 1.01047 -0.34559 0.0903986 -0.934021 101 74 67
-8.48408 -1.2365 1.01009 -0.531988 0.103971 -0.840344 102 73 65
-8.4348 -1.20542 0.987873 -0.463959 0.0891195 -0.881363 138 106 91
-8.4321 -1.22017 0.968904 -0.413213 -0.0465542 -0.909444 130 98 84
-8.36111 -1.19642 0.936153 0.765284 0.265237 -0.586506 162 133 113
-8.28408 -1.18497 0.949352 -0.391272 -0.314273 -0.86495 114 94 76
-7.90485 -1.20165 1.02245 -0.205107 0.0242302 -0.97844 108 75 59
-7.9505 -1.21106 1.04811 -0.590086 -0.0364585 -0.806517 144 111 93
-7.86146 -1.20318 1.01871 0.109637 0.0940473 -0.989513 117 83 69
-7.8527 -1.21373 1.01459 -0.431398 -0.271526 -0.860331 121 86 73
-7.73963 -1.16437 0.938662 -0.385779 0.775974 -0.499038 125 90 75
-7.7707 -1.21395 0.977695 -0.309012 -0.470537 -0.826503 126 93 77
-7.10641 -1.16141 1.10251 0.683755 -0.160008 -0.711953 134 95 80
-7.02138 -1.18891 1.03103 0.366718 -0.29462 -0.882449 133 95 77
-6.96391 -1.14339 1.04804 0.707247 -0.0354126 -0.706079 138 99 84
-6.29964 -1.1644 1.10154 0.0580734 -0.0504956 -0.997035 161 120 131
-6.24589 -1.16346 1.10076 0.060964 -0.0563439 -0.996548 98 86 87
-6.19145 -1.1646 1.10882 0.188476 0.0139962 -0.981978 75 68 65
-5.23498 -1.11565 1.14286 0.1889 0.0445592 -0.980985 145 115 103
-4.97404 -1.10169 1.15194 -0.0608593 -0.389185 -0.919147 55 28 31
-3.20565 -1.08041 1.43155 -0.212337 -0.440927 -0.872064 145 148 151
-3.12232 -1.03512 1.41562 0.102277 0.0926939 -0.990428 84 95 102
-2.99346 -1.0299 1.45029 -0.0642346 0.132629 -0.989082 59 68 73
-3.03948 -1.06447 1.41421 0.105023 0.107221 -0.988673 35 43 49
-3.02116 -1.03208 1.43768 0.149645 0.505999 -0.849453 68 76 81
-2.9194 -1.07194 1.43817 0.128753 0.400954 -0.907005 16 25 31
-2.94271 -1.03047 1.44785 -0.0754356 0.113923 -0.990621 31 39 46
-2.96789 -1.07354 1.43426 0.242378 0.496771 -0.833349 18 25 29
-2.85542 -1.02606 1.43538 -0.0288234 0.182047 -0.982867 24 34 41
-2.9038 -1.02654 1.43795 -0.016364 0.191689 -0.981319 28 36 44
-2.88622 -1.06567 1.42348 0.164124 0.476613 -0.863657 19 28 34
-2.7841 -1.0324 1.44896 -0.0204209 0.0451712 -0.99877 23 34 43
-2.82154 -1.06907 1.41872 0.151376 0.453568 -0.878272 24 35 43
-2.83231 -1.0709 1.42988 0.119694 0.405538 -0.906208 24 33 41
-2.72196 -1.03534 1.45466 -0.240674 0.185602 -0.952695 30 42 52
-2.74543 -1.04015 1.45929 -0.0330379 0.0344006 -0.998862 28 39 49
-2.68316 -1.04271 1.46323 -0.0340462 0.0276141 -0.999039 28 41 51
-2.65643 -1.04685 1.44609 -0.0332349 0.0358986 -0.998803 30 43 55
-2.60634 -1.05176 1.47789 -0.0417306 0.0185251 -0.998957 28 42 54
-2.53689 -1.05784 1.48636 9.47556e-005 0.0248697 -0.999691 26 41 53
-2.48972 -1.0534 1.47469 0.00209379 0.0295669 -0.999561 31 46 62
-2.45772 -1.00397 1.47887 -0.0341017 0.0385614 -0.998674 44 59 76
-2.43798 -1.05223 1.46826 0.0510424 0.24905 -0.967145 40 55 74
-2.37672 -1.01071 1.49299 -0.014977 0.140035 -0.990033 49 63 81
-2.32039 -1.06482 1.51421 -0.315291 -0.33298 -0.88866 48 63 84
-2.30977 -1.01266 1.49676 -0.261696 0.0274619 -0.96476 57 71 84
-2.30062 -0.994549 1.49343 -0.382683 0.176183 -0.906925 75 87 96
-2.22893 -1.05184 1.49111 -0.167819 -0.0309493 -0.985332 149 161 166
-2.25513 -0.994462 1.4739 -0.31143 -0.365097 -0.877334 141 153 155
-2.15785 -1.02595 1.49796 0.0155232 0.0337522 -0.99931 139 152 151
-2.14481 -1.03037 1.50835 0.0216614 0.0440157 -0.998796 143 156 154
-2.05896 -1.00064 1.50541 -0.11779 0.0232053 -0.992767 145 162 163
-1.99641 -1.00064 1.49528 -0.101866 0.0443217 -0.99381 163 182 188
-1.87213 -1.05585 1.55664 -0.0377845 0.527341 -0.848813 155 172 177
-1.93781 -0.989244 1.49144 0.026098 -0.0645552 -0.997573 148 169 177
-1.84718 -0.997547 1.50569 -0.0743873 0.0427105 -0.996314 142 160 168
-1.77774 -0.997191 1.4996 -0.193363 0.08 -0.97786 132 147 154
-0.802924 -0.988034 1.61476 -0.044293 0.0293917 -0.998586 113 116 112
-8.89164 -1.18942 0.99175 0.0481661 0.0904286 -0.994738 34 27 16
-8.89823 -1.17088 1.05372 0.226495 0.317343 -0.920866 39 35 26
-8.79684 -1.16662 0.997259 0.35189 -0.422246 -0.835393 82 79 59
-8.77604 -1.21094 1.01834 0.555858 -0.578971 -0.596501 108 104 79
-8.6935 -1.17233 1.02289 0.735772 -0.358702 -0.574432 121 116 96
-8.67077 -1.20085 1.03453 0.816339 0.253863 -0.518791 169 162 145
-8.62402 -1.20104 1.03969 0.53587 0.352898 -0.767011 173 165 155
-8.57142 -1.19556 1.03376 -0.0743701 0.0973623 -0.992467 165 152 144
-8.57589 -1.15868 1.02642 0.160201 0.407827 -0.898895 168 157 148
-8.52339 -1.19651 1.03366 -0.468751 0.269119 -0.841337 103 80 73
-8.4731 -1.13563 1.00381 -0.532684 0.0975224 -0.840677 106 76 65
-8.39325 -1.13681 0.950813 -0.179046 0.0997975 -0.978766 160 129 111
-8.35421 -1.14129 0.959914 0.258379 0.347963 -0.9012 161 132 111
-8.30317 -1.13519 0.946573 -0.262093 0.0798945 -0.96173 143 120 101
-8.02512 -1.15826 0.993371 0.792011 0.0393799 -0.609235 164 132 113
-7.97383 -1.13071 1.07396 -0.580293 0.0819532 -0.810274 153 122 105
-7.93109 -1.16338 1.03689 -0.603932 0.0349392 -0.79627 116 84 67
-7.84188 -1.16557 1.0161 -0.00067626 -0.0953682 -0.995442 118 84 69
-7.86885 -1.12843 1.02251 -0.00959779 -0.0467035 -0.998863 112 79 64
-7.8421 -1.17044 1.0323 0.177475 -0.381761 -0.907062 119 85 69
-7.75682 -1.12073 0.939019 -0.197087 0.892386 -0.405962 123 88 73
-7.71192 -1.10074 0.959939 -0.211983 0.885354 -0.413778 123 89 73
-7.71282 -1.12397 0.913984 -0.226547 0.881166 -0.414997 124 88 73
-7.69408 -1.14312 0.956223 -0.375994 0.787993 -0.48754 122 87 71
-7.64273 -1.09078 0.952658 -0.299066 0.839445 -0.453754 121 88 72
-7.66865 -1.13324 0.980347 -0.450895 0.718202 -0.52998 120 86 69
-7.50422 -1.11128 1.00184 0.675555 0.635374 -0.374067 126 91 76
-7.55381 -1.10748 0.99498 0.627612 0.674888 -0.388111 121 89 74
-7.46206 -1.08722 1.00317 -0.108599 0.864748 -0.490324 128 95 82
-7.31807 -1.09701 0.981725 0.492406 0.797382 -0.348881 131 93 81
-7.36352 -1.10552 0.989078 0.583748 0.705166 -0.402466 130 93 80
-7.28086 -1.08877 1.01199 -0.020969 0.723956 -0.689527 132 96 84
-7.28171 -1.11225 0.96924 0.651426 0.7051 -0.28014 132 93 80
-7.13649 -1.0954 1.03593 0.0870122 -0.0664343 -0.99399 133 96 84
-7.15904 -1.13402 1.03636 0.696156 -0.158722 -0.700125 132 94 79
-7.06369 -1.0774 0.989213 0.335486 0.823336 -0.457786 135 98 87
-6.97534 -1.11873 1.08374 -0.530629 -0.426027 -0.732757 137 101 87
-5.34958 -1.02008 1.12972 0.124986 0.0823548 -0.988735 54 29 29
-5.10982 -1.01536 1.14523 0.0329186 0.0538639 -0.998006 99 46 52
-4.99733 -1.0152 1.15325 0.087679 -0.064525 -0.994057 48 28 31
-4.179 -0.997014 1.29481 -0.29382 -0.622655 -0.725238 113 110 105
-3.8698 -1.03988 1.35224 0.221228 0.738211 -0.637262 131 129 128
-3.92529 -1.03796 1.35948 0.244818 0.774694 -0.58302 148 149 150
-3.076 -0.969204 1.41378 -0.101937 0.021445 -0.99456 125 136 139
-2.96651 -0.989453 1.45265 0.112291 0.400907 -0.909211 126 136 139
-2.97471 -0.985071 1.44768 -0.0729758 0.116504 -0.990506 130 139 142
-2.9248 -0.986002 1.44956 0.095324 0.350478 -0.931707 129 138 141
-2.81653 -0.984063 1.44695 -0.0988021 0.0510277 -0.993798 72 82 87
-2.71801 -0.991971 1.45936 0.075612 0.208179 -0.975164 49 61 70
-2.78104 -0.982722 1.43672 -0.155043 0.0602922 -0.986066 51 61 69
-2.7519 -0.943024 1.46294 0.0302185 0.272801 -0.961596 116 129 132
-2.75772 -0.985821 1.45011 -0.0996942 0.089048 -0.991025 55 66 74
-2.64578 -0.997941 1.47171 -0.0313327 0.0324425 -0.998982 48 61 73
-2.69397 -0.996678 1.45897 -0.0620336 0.172945 -0.982976 43 55 67
-2.72412 -0.950805 1.46144 -0.203551 -0.0170457 -0.978916 126 138 143
-2.68963 -0.945132 1.47262 0.00695027 0.242218 -0.970197 123 136 139
-2.57912 -1.00173 1.47646 -0.023098 0.058667 -0.99801 44 58 71
-2.63261 -0.958961 1.49218 -0.706824 0.238048 -0.666133 131 144 148
-2.6327 -0.948787 1.47497 -0.0146442 0.0965361 -0.995222 132 144 149
-2.47652 -0.936932 1.48862 0.032632 0.0581939 -0.997772 126 140 142
-2.48297 -0.954826 1.48566 0.016859 0.0376782 -0.999148 128 143 149
-2.4946 -0.936987 1.49676 -0.0312571 0.111643 -0.993257 128 141 143
-2.50462 -0.935317 1.48084 -0.111554 0.031553 -0.993257 133 144 148
-2.42195 -0.954152 1.48435 -0.0717055 0.0450438 -0.996408 132 144 152
-2.36687 -0.95307 1.48504 -0.140776 0.102997 -0.984669 135 146 151
-2.28581 -0.964769 1.489 -0.34351 0.0640396 -0.936963 119 130 131
-2.22964 -0.96694 1.47661 -0.427883 0.330473 -0.841252 141 152 151
-2.13746 -0.98262 1.49286 0.0209186 0.0476881 -0.998643 137 152 150
-2.20531 -0.925839 1.47497 -0.119774 0.060292 -0.990969 135 147 148
-2.0931 -0.927459 1.51754 -0.0643739 -0.210793 -0.975409 74 89 96
-2.12682 -0.983627 1.49566 -0.0979901 0.0799365 -0.991972 141 154 154
-1.99735 -0.945291 1.49691 -0.171052 0.0951364 -0.980658 81 103 116
-1.99061 -0.947746 1.50306 -0.182883 0.049654 -0.98188 81 103 116
-1.98229 -0.949374 1.50741 -0.212503 -0.00254434 -0.977157 81 103 116
-1.80819 -0.941464 1.51069 0.0594276 0.131669 -0.989511 41 66 83
-1.72652 -0.948032 1.51436 0.203304 0.221926 -0.953633 52 73 88
-8.76333 -1.11038 0.989419 0.293911 -0.330865 -0.896741 74 72 58
-8.73893 -1.14025 1.02752 0.821419 -0.0938881 -0.562544 90 86 67
-8.66929 -1.11432 1.03196 0.337628 -0.3729 -0.864264 163 157 145
-8.69737 -1.10571 1.04343 0.954965 0.154461 -0.253347 125 120 107
-8.63523 -1.15085 1.04567 0.844115 0.127974 -0.520666 171 164 154
-8.56095 -1.12613 1.05191 -0.4584 -0.123032 -0.880189 137 121 111
-8.40736 -1.1012 0.951073 -0.429684 0.502912 -0.749968 150 119 102
-8.32488 -1.10223 0.950919 -0.138198 0.152994 -0.978516 155 129 109
-8.34625 -1.06279 0.959217 -0.0469739 0.0763488 -0.995974 158 130 109
-8.30096 -1.06283 0.952974 -0.247266 0.303929 -0.920047 137 115 98
-8.26009 -1.06483 0.949405 -0.187395 0.1208 -0.974829 77 61 48
-8.21919 -1.0696 0.955496 -0.13452 0.89173 -0.432113 76 66 56
-8.02243 -1.07791 1.00076 0.78057 -0.0197663 -0.624755 162 131 113
-8.02399 -1.08735 0.996609 0.818362 0.00874041 -0.574637 163 131 112
-7.9265 -1.09781 1.03206 -0.574079 0.0127901 -0.8187 116 84 69
-7.84739 -1.09042 1.02244 -0.0419085 0.234749 -0.971152 120 85 70
-7.81671 -1.04318 1.01498 -0.365213 -0.475526 -0.800309 124 88 72
-7.81581 -1.09567 1.04342 0.740461 0.00447622 -0.672084 127 92 75
-7.68407 -1.09046 0.995684 -0.0260161 0.698134 -0.715494 122 89 73
-7.64397 -1.07649 1.01637 -0.0494636 0.840881 -0.538954 125 95 80
-7.64202 -1.04978 1.05035 -0.264888 0.214678 -0.940078 153 127 113
-7.59829 -1.086 0.991999 -0.026909 0.917296 -0.397295 124 93 78
-7.60239 -1.0535 1.04815 -0.0202164 0.104724 -0.994296 174 150 137
-7.50376 -1.07816 1.02399 -0.0907776 0.849144 -0.520302 132 101 89
-7.55556 -1.07507 1.01508 0.00758444 0.880467 -0.474046 127 97 84
-7.45724 -1.06211 1.03571 -0.0345531 0.855601 -0.516482 153 125 115
-7.49911 -1.05564 1.06872 -0.0916301 0.899722 -0.426738 180 157 147
-7.41191 -1.07107 1.01135 -0.045159 0.911799 -0.408146 137 105 95
-7.31835 -1.06601 1.00666 -0.0458154 0.926994 -0.372267 141 107 97
-7.36541 -1.0591 1.0358 -0.0329131 0.915821 -0.400236 157 128 119
-7.36449 -1.06696 1.01577 -0.0800229 0.927075 -0.366236 141 109 99
-7.26414 -1.0523 1.03319 -0.056291 0.791652 -0.608374 162 134 125
-7.29865 -1.03705 1.03692 -0.226727 -0.382368 -0.895762 188 163 156
-7.19004 -1.05926 1.00665 0.0263334 0.908798 -0.416404 144 112 100
-7.13592 -1.04007 1.05723 0.0599512 0.885479 -0.460796 179 157 147
-7.14293 -1.05037 1.03217 0.0562115 0.911609 -0.407196 158 130 119
-7.09582 -1.04146 1.06499 -0.0276501 0.897791 -0.439552 180 155 147
-7.03596 -1.03792 1.05469 0.478889 0.673654 -0.562899 181 155 147
-6.86478 -1.01783 1.09484 0.41212 0.725757 -0.550848 194 175 167
-6.80256 -1.03188 1.05891 0.499433 0.623418 -0.601594 180 159 149
-5.91911 -1.02114 1.11603 0.0961004 -0.0703424 -0.992883 108 67 61
-4.25264 -0.919825 1.24241 0.116259 0.0510584 -0.991906 110 100 90
-3.35574 -0.94062 1.4055 0.0674055 -0.000239592 -0.997726 156 166 170
-3.22289 -0.916925 1.39504 -0.0202784 0.0457975 -0.998745 143 156 160
-3.19009 -0.915452 1.3975 0.127268 0.29392 -0.947319 138 151 155
-3.03844 -0.93624 1.44012 0.100975 0.329647 -0.938689 120 134 134
-3.09995 -0.920301 1.42224 -0.0882839 0.0451973 -0.995069 127 141 143
-2.97221 -0.937223 1.44392 0.0202545 0.198552 -0.979881 124 135 136
-2.82323 -0.938896 1.46656 -0.121531 0.113315 -0.986098 124 136 138
-2.8974 -0.877161 1.42016 -0.464347 -0.664958 -0.58499 115 129 129
-2.84523 -0.878928 1.41963 -0.107007 0.0481037 -0.993094 109 122 121
-2.7737 -0.939162 1.46197 0.0285044 0.051226 -0.99828 117 130 132
-2.72462 -0.899857 1.47734 -0.00663067 0.208722 -0.977952 108 120 117
-2.71384 -0.910295 1.46949 -0.119688 0.0758209 -0.989912 110 122 121
-2.72016 -0.899413 1.48036 0.0165474 0.243121 -0.969855 109 120 117
-2.67606 -0.896804 1.47373 0.0127696 0.237004 -0.971425 112 123 120
-2.67918 -0.86801 1.42026 0.0105259 0.100259 -0.994906 122 130 128
-2.62988 -0.893765 1.45915 -0.0786516 0.0395013 -0.996119 123 133 132
-2.59924 -0.923186 1.46269 -0.237015 -0.189994 -0.952747 126 139 140
-2.58762 -0.866492 1.44202 -0.0300857 0.110433 -0.993428 126 134 131
-2.57711 -0.930152 1.4736 -0.0444021 0.134259 -0.989951 127 140 141
-2.49611 -0.878625 1.47328 0.0460312 0.113478 -0.992474 126 134 132
-2.38882 -0.905188 1.48795 0.0221927 0.0455412 -0.998716 129 138 137
-2.43565 -0.878788 1.4765 0.0472909 0.115502 -0.992181 127 135 132
-2.32746 -0.904693 1.48804 0.0262396 0.0487317 -0.998467 124 133 130
-2.25935 -0.920398 1.48365 -0.103084 0.0448523 -0.993661 134 144 141
-2.31118 -0.862755 1.47287 -0.121044 0.0698566 -0.990186 109 113 109
-2.23691 -0.866743 1.47752 -0.108714 0.0553151 -0.992533 136 146 146
-2.17737 -0.917891 1.50528 -0.0963277 0.228652 -0.968731 133 145 145
-2.17154 -0.860304 1.49322 -0.0325274 0.0204794 -0.999261 110 124 128
-2.07285 -0.881797 1.47846 -0.133371 0.14236 -0.980788 36 57 74
-1.96751 -0.891913 1.49572 -0.16605 0.102938 -0.98073 39 64 87
-1.81873 -0.876635 1.52557 0.029647 0.0464743 -0.998479 25 52 79
-1.82111 -0.876521 1.52604 -0.0461638 0.00428186 -0.998925 29 57 84
-1.70058 -0.888732 1.55364 -0.0746008 0.0465708 -0.996125 28 59 88
-8.70624 -1.07388 1.03269 0.659694 -0.024391 -0.751138 86 82 69
-8.6425 -1.07027 1.03818 0.339437 -0.23189 -0.911597 168 163 153
-8.5811 -1.06468 1.03119 0.109758 0.0973859 -0.989176 166 157 148
-8.62353 -1.0306 1.05296 0.517074 0.119555 -0.84755 168 161 153
-8.53491 -1.06355 1.03346 -0.00784177 -0.0793252 -0.996818 115 96 86
-8.56066 -1.02715 1.04129 0.454497 0.480439 -0.750074 143 129 121
-8.49655 -1.01576 1.01142 -0.476109 -0.126952 -0.870174 100 75 64
-8.46522 -1.04376 0.985256 -0.5021 -0.00640908 -0.864786 107 77 66
-8.43011 -1.01488 0.988767 -0.365504 -0.00609821 -0.93079 146 115 100
-8.36397 -1.01883 0.950786 0.594043 -0.0856288 -0.799863 160 130 110
-8.31186 -1.02055 0.954119 0.0266852 -0.0124481 -0.999566 147 124 105
-8.23561 -1.02468 0.948033 -0.147095 0.124308 -0.98128 74 62 51
-8.02394 -0.988828 0.956017 0.853793 0.0993615 -0.511043 156 128 108
-8.01647 -1.05354 1.05384 0.636603 -0.379776 -0.671198 160 130 111
-7.92583 -1.03747 1.03373 -0.596667 -0.0143048 -0.802362 112 81 67
-7.88521 -1.00628 1.00662 -0.556827 0.0461612 -0.829345 106 75 62
-7.84713 -0.991905 1.00561 -0.374748 -0.267627 -0.887659 116 82 68
-7.79635 -0.997909 0.998544 -0.256171 -0.282467 -0.924439 123 88 72
-7.70262 -1.0162 1.08792 -0.337337 0.0463052 -0.940244 118 86 71
-7.66024 -1.01567 1.06651 -0.427313 0.0759179 -0.900911 132 106 93
-7.58249 -1.022 1.06008 0.221033 0.0970768 -0.970423 182 164 152
-7.59873 -0.983935 1.04569 -0.17654 0.0333827 -0.983727 181 165 153
-7.46598 -0.997806 1.01925 0.0437854 -0.282324 -0.958319 188 173 164
-7.38431 -0.998121 1.01227 0.0497882 -0.599289 -0.798983 191 174 166
-7.42289 -0.998215 1.01356 0.0646543 -0.547431 -0.834349 190 174 167
-7.32782 -1.00931 1.06832 -0.0642722 -0.16809 -0.983674 186 170 163
-7.27387 -1.00696 1.04853 -0.0255697 -0.1655 -0.985878 185 168 160
-7.22829 -1.00974 1.0545 -0.110695 0.210722 -0.971258 183 166 157
-7.15711 -1.00737 1.0667 -0.0179641 0.27811 -0.960381 180 164 154
-7.14222 -0.962718 1.04899 0.316641 -0.338158 -0.886221 173 162 150
-7.07764 -1.00531 1.07053 0.101862 0.279477 -0.954734 183 166 158
-7.11735 -1.00676 1.06998 0.114694 0.31538 -0.942009 181 164 156
-7.06319 -0.975565 1.06288 -0.547862 -0.4142 -0.726832 180 166 158
-7.10378 -0.958089 1.04147 0.134324 -0.416666 -0.899081 174 163 151
-7.00573 -0.989123 1.03719 0.0574376 -0.338737 -0.939126 185 168 160
-6.98642 -0.953212 1.05481 0.339681 0.350412 -0.872828 179 164 153
-6.94459 -0.953063 1.07029 0.233153 0.23909 -0.94259 181 164 153
-6.87517 -0.944136 1.06725 0.552761 0.544548 -0.630811 182 164 152
-6.40772 -0.935892 1.10939 -0.272632 0.00241607 -0.962116 167 153 145
-6.40781 -0.936299 1.10882 -0.25716 0.0163265 -0.966231 167 153 145
-5.83147 -0.914642 1.11746 0.061459 -0.0653596 -0.995967 108 80 85
-5.13155 -0.911449 1.14364 0.0932304 -0.0502255 -0.994377 91 53 52
-5.12771 -0.910461 1.14453 0.101262 -0.0467937 -0.993759 87 49 48
-5.08131 -0.910754 1.14677 0.202888 0.0265797 -0.978841 86 52 50
-4.97076 -0.896252 1.14142 0.0743256 -0.168538 -0.982889 66 45 40
-4.92236 -0.883339 1.13792 0.00528167 -0.315925 -0.948769 92 66 60
-4.31399 -0.848396 1.20277 0.260028 0.115883 -0.958622 128 113 100
-4.31362 -0.850833 1.20415 0.0459468 -0.0711423 -0.996407 130 114 101
-4.21697 -0.854203 1.27564 0.164029 -0.0487834 -0.985248 98 88 78
-3.39598 -0.868909 1.40662 0.0285622 0.0158879 -0.999466 82 105 125
-3.31269 -0.868921 1.40981 0.0378593 0.0222153 -0.999036 92 111 129
-3.25902 -0.860689 1.39316 0.0787844 0.21293 -0.973886 100 119 137
-3.18033 -0.86679 1.40813 -0.0206146 0.0452147 -0.998765 99 120 137
-3.13677 -0.86694 1.41762 -0.01638 -0.00386838 -0.999858 97 117 133
-3.00887 -0.819818 1.42701 -0.0905505 0.0513972 -0.994565 64 88 109
-3.03773 -0.870577 1.42759 -0.150553 0.103512 -0.983168 101 119 131
-2.97174 -0.872906 1.42757 -0.110281 0.0661751 -0.991695 109 125 131
-2.95549 -0.818472 1.41669 -0.0636889 0.105463 -0.992382 115 135 147
-2.92438 -0.86961 1.4122 -0.49276 -0.723554 -0.483381 136 149 154
-2.92627 -0.866257 1.39112 -0.475848 -0.703357 -0.52807 124 138 142
-2.79454 -0.863773 1.42979 -0.0936295 0.035895 -0.99496 108 120 118
-2.85517 -0.808861 1.42246 -0.147175 0.0374118 -0.988403 97 110 112
-2.7707 -0.804921 1.40927 0.115841 0.379555 -0.917888 79 85 82
-2.74749 -0.862644 1.42634 -0.00714963 0.228492 -0.97352 109 119 117
-2.80892 -0.809368 1.41534 -0.188382 0.131674 -0.973229 82 90 89
-2.65037 -0.863638 1.43591 -0.0209963 0.0230168 -0.999514 122 130 127
-2.68247 -0.814902 1.434 -0.0844755 0.0513142 -0.995103 85 90 86
-2.68253 -0.86548 1.44107 -0.114048 0.0776788 -0.990434 113 122 118
-2.63559 -0.812995 1.42884 -0.060723 0.103326 -0.992792 87 90 86
-2.54083 -0.82575 1.46384 0.0407576 0.0810216 -0.995879 88 93 88
-2.4288 -0.848136 1.48239 0.027027 0.0501478 -0.998376 121 125 120
-2.46948 -0.825952 1.4777 0.153433 0.271322 -0.95018 83 87 80
-2.40524 -0.825795 1.48407 0.116875 0.180519 -0.976603 82 85 77
-2.36643 -0.846798 1.48433 0.0593395 0.105754 -0.99262 119 124 117
-2.35702 -0.850862 1.49147 0.0216509 0.0446102 -0.99877 122 125 119
-2.29794 -0.847978 1.48936 0.0117962 0.0233259 -0.999658 99 101 96
-2.29804 -0.84962 1.48934 0.00282568 0.00947013 -0.999951 102 104 99
-2.33684 -0.793002 1.48504 -0.217457 -0.358327 -0.907918 62 60 52
-2.29039 -0.811638 1.46738 -0.164884 -0.000337204 -0.986313 97 99 95
-2.28475 -0.810886 1.47014 -0.120949 0.0679326 -0.990331 100 102 98
-2.11899 -0.825406 1.47719 -0.0984314 0.121219 -0.987733 31 48 60
-1.99296 -0.778384 1.49604 -0.141759 0.0146539 -0.989793 77 95 106
-1.94114 -0.837465 1.49266 -0.0640019 0.0985168 -0.993075 37 59 83
-1.77992 -0.809269 1.52984 0.0117743 0.0562358 -0.998348 30 54 77
-1.6729 -0.823021 1.54423 -0.171655 -0.0997759 -0.980091 37 67 95
-8.49189 -1.00304 0.9868 -0.240882 0.353667 -0.903823 100 76 66
-8.47378 -0.966741 1.01362 -0.398364 0.372665 -0.838109 106 79 65
-8.37364 -0.953092 0.963435 0.206331 -0.000998884 -0.978482 158 130 110
-8.20494 -0.983311 0.946531 -0.273555 -0.330517 -0.903286 74 66 56
-8.18653 -0.943529 0.951474 -0.350242 -0.0207579 -0.936429 74 67 61
-8.01039 -0.953115 1.02775 0.455348 -0.59121 -0.665679 156 128 108
-7.99154 -0.993696 1.04582 0.693494 -0.283576 -0.662308 159 130 112
-7.88206 -0.95376 1.01499 -0.282273 0.149022 -0.947689 107 75 63
-7.83941 -0.951173 0.995708 -0.0655984 -0.194349 -0.978737 117 82 70
-7.69982 -0.929357 1.07664 0.375977 0.0445255 -0.925559 122 91 77
-7.74114 -0.936603 1.08105 -0.0485669 -0.144523 -0.988309 125 91 75
-7.68018 -0.975838 1.08078 -0.422597 0.0227892 -0.906031 119 89 76
-7.65803 -0.933763 1.069 -0.421889 0.0127502 -0.906558 135 110 98
-7.57872 -0.953365 1.05836 0.373044 0.124251 -0.919456 183 168 159
-7.4878 -0.917761 1.02963 0.586367 0.564478 -0.58098 161 154 151
-7.45501 -0.916061 1.03389 0.542995 0.632019 -0.552909 156 149 147
-7.28774 -0.924082 1.04565 0.668569 0.367918 -0.64626 159 153 146
-7.21716 -0.940218 0.962849 -0.210063 0.371658 -0.904292 175 163 154
