ply
format ascii 1.0
element vertex 723
property float x
property float y
property float z
property float nx
property float ny
property float nz
property uchar diffuse_red
property uchar diffuse_green
property uchar diffuse_blue
end_header
-9.11414 -1.74108 0.894122 0.180212 -0.558972 -0.809366 112 97 114
-9.13622 -1.79085 0.995251 -0.0421875 0.45533 -0.889322 81 72 87
-10.8322 -1.78385 0.879298 0.886725 -0.282619 -0.365849 114 81 77
-10.7259 -1.78637 0.883364 -0.210823 0.383979 -0.898952 123 87 81
-10.7458 -1.79781 0.904831 -0.134159 0.292775 -0.946723 126 89 82
-10.7109 -1.79045 0.872662 -0.209728 0.356788 -0.910339 125 89 82
-10.6469 -1.79354 0.897742 7.29859e-005 0.197335 -0.980336 97 64 57
-10.5418 -1.78909 0.896611 0.0823513 0.0136942 -0.996509 99 67 60
-10.4539 -1.79212 0.901507 -0.012483 0.131856 -0.99119 105 73 65
-10.3462 -1.75398 0.897485 0.515599 -0.16652 -0.840493 94 64 57
-10.2837 -1.75623 0.919004 0.391023 -0.119264 -0.912621 122 88 81
-10.2743 -1.73131 0.924188 0.738154 -0.147241 -0.658368 120 88 82
-10.1707 -1.73134 0.929656 0.0483534 -0.0589134 -0.997091 129 93 84
-10.149 -1.76868 0.981526 -0.159915 0.485369 -0.859561 106 70 61
-9.34683 -1.5965 0.517718 0.63439 -0.548673 -0.544525 114 77 64
-9.57251 -1.76844 0.984057 0.012449 0.113216 -0.993492 179 162 153
-9.49172 -1.76205 0.995518 -0.132232 -0.0823492 -0.987792 163 152 156
-9.46379 -1.71309 1.01376 0.0957745 -0.425217 -0.90001 119 108 119
-9.51693 -1.77573 1.00423 0.219733 0.171295 -0.960404 173 162 162
-9.41668 -1.76275 0.97871 -0.0792724 0.24397 -0.966537 116 103 117
-9.37105 -1.70033 0.97671 -0.21506 0.362166 -0.906965 113 100 119
-9.43903 -1.77171 1.00786 0.594038 0.229429 -0.771026 115 103 117
-9.3132 -1.69623 0.962185 0.0743646 0.79103 -0.607241 115 103 124
-9.26849 -1.72289 0.952395 -0.353084 0.652433 -0.67057 124 108 128
-9.23124 -1.73098 0.95141 -0.245263 0.366871 -0.897358 128 109 128
-9.18598 -1.74247 0.973855 -0.299551 -0.081921 -0.950557 119 103 120
-9.11857 -1.66678 0.931535 0.446282 0.147305 -0.882685 95 83 101
-9.12457 -1.722 0.967731 0.194162 -0.239317 -0.95133 76 67 83
-9.09191 -1.73725 0.997472 -0.147752 0.139206 -0.979179 100 94 111
-8.13977 -1.66417 0.933314 -0.00568501 -0.20857 -0.977991 101 88 84
-10.8961 -1.71606 0.879061 0.263819 0.142091 -0.954049 106 78 74
-10.8124 -1.73727 0.897644 0.0877034 -0.0084303 -0.996111 101 66 61
-10.6778 -1.70461 0.899877 -0.0224995 0.250518 -0.96785 91 62 55
-10.5706 -1.69976 0.878328 -0.0421663 0.371222 -0.927586 101 74 67
-10.4538 -1.73019 0.921654 0.840399 -0.311168 -0.443739 102 74 68
-10.3999 -1.66897 0.891205 0.0900699 -0.127463 -0.987745 129 103 98
-10.2794 -1.65366 0.904732 0.05451 0.000922143 -0.998513 105 78 72
-10.3437 -1.69174 0.915716 0.934133 -0.128549 -0.332972 96 68 62
-10.1355 -1.65938 0.937104 0.439746 0.138485 -0.887381 102 68 60
-10.0824 -1.69097 0.993819 0.128375 -0.375763 -0.917781 114 78 68
-9.60635 -1.62114 0.91999 0.432256 -0.569078 -0.699503 115 87 76
-9.60699 -1.66949 1.04359 -0.316018 0.148257 -0.937098 163 156 149
-9.59772 -1.70067 0.98 -0.277053 0.0800827 -0.957512 163 143 133
-9.50977 -1.67183 0.959827 -0.264995 0.731118 -0.628684 174 163 159
-9.56351 -1.70534 1.02525 -0.293189 0.085962 -0.952182 174 163 159
-9.48658 -1.70363 1.03432 -0.128269 -0.111808 -0.985417 124 112 123
-9.4457 -1.66474 1.06369 0.0467421 -0.539741 -0.840533 91 91 107
-9.3772 -1.64647 0.971162 -0.217367 0.327178 -0.919623 110 97 115
-9.26702 -1.63482 0.95147 -0.0492472 0.470777 -0.880877 113 102 123
-9.24688 -1.66527 0.938098 0.252704 0.677831 -0.690425 116 103 124
-9.21742 -1.61059 0.946513 0.00800788 0.584001 -0.811714 116 104 125
-9.1848 -1.66712 0.93754 -0.0780822 0.105769 -0.99132 114 101 120
-9.1818 -1.6262 0.981678 0.0561766 0.558182 -0.827815 115 103 121
-9.12184 -1.63525 0.980727 0.320533 -0.51519 -0.794882 70 56 73
-8.48365 -1.62624 0.958499 -0.23357 0.263549 -0.935942 130 86 72
-10.8395 -1.63731 0.885656 0.155682 0.220953 -0.962779 83 55 51
-10.7816 -1.61808 0.882606 0.248702 0.317264 -0.915145 86 55 51
-10.6657 -1.60095 0.872624 0.376283 0.0312994 -0.925976 83 53 49
-10.5659 -1.59948 0.867116 0.104446 0.138558 -0.984831 59 37 32
-10.2408 -1.5923 0.917814 0.00933728 0.338836 -0.940799 89 60 54
-10.2079 -1.64817 0.915486 0.283072 0.264227 -0.921984 96 66 60
-10.1638 -1.58355 0.922868 -0.100956 0.201864 -0.974196 92 59 52
-10.1488 -1.65015 0.937664 0.37174 0.298806 -0.878934 96 64 55
-10.1041 -1.58589 0.941907 0.261254 0.160065 -0.951906 102 68 60
-10.1339 -1.59685 0.963432 0.927863 -0.371223 -0.0355441 100 66 58
-9.95488 -1.58645 0.948287 -0.300991 0.426871 -0.852752 110 76 65
-9.84521 -1.5858 0.917135 -0.298254 0.546142 -0.782799 113 78 65
-9.60235 -1.60264 0.988247 -0.0526352 0.28593 -0.956804 160 143 136
-9.5221 -1.59695 0.967968 -0.240969 0.789673 -0.564226 169 159 157
-9.47575 -1.59914 0.982487 0.0583311 -0.219553 -0.973855 149 139 144
-9.39101 -1.59276 0.975637 0.106454 -0.170453 -0.979599 107 94 109
-9.33527 -1.59426 0.978401 -0.0105051 0.441978 -0.896964 112 100 117
-9.25612 -1.583 0.95001 0.0198214 0.442566 -0.896517 115 103 121
-9.20204 -1.55772 0.958633 -0.0495836 0.208647 -0.976733 108 97 110
-9.15748 -1.58223 0.947422 0.0805326 0.42106 -0.903451 109 97 113
-8.15759 -1.51221 0.913426 0.354194 0.482571 -0.801044 89 78 75
-7.3322 -1.54058 1.152 0.722748 0.678455 -0.131663 130 93 76
-10.7389 -1.55016 0.89151 -0.194477 0.367147 -0.909606 108 71 70
-10.626 -1.53463 0.883414 -0.20664 0.389732 -0.897446 82 52 50
-10.6293 -1.58487 0.892795 -0.0498066 -0.0518973 -0.99741 79 53 50
-10.55 -1.58338 0.861027 0.0913253 0.142912 -0.985513 58 37 33
-10.5247 -1.58236 0.890534 0.0510146 -0.045978 -0.997639 54 37 32
-10.3776 -1.56204 0.867501 0.29438 -0.353915 -0.887741 62 43 39
-10.3313 -1.58166 0.909405 0.128522 -0.0170145 -0.991561 72 49 42
-10.1875 -1.52042 0.927491 -0.120473 0.247931 -0.961258 116 81 75
-10.1309 -1.52624 0.935434 -0.0899576 0.256159 -0.96244 98 63 56
-10.0361 -1.51109 0.9237 -0.0421976 0.282095 -0.958458 108 72 65
-10.0479 -1.58953 0.966047 -0.120309 0.212944 -0.969629 112 76 66
-9.82728 -1.51567 0.947004 0.0511703 0.195894 -0.979289 105 73 62
-9.7751 -1.54563 0.928505 -0.183461 0.603652 -0.775852 110 76 64
-9.67767 -1.49179 0.910818 0.361466 0.732271 -0.577168 104 72 63
-9.72846 -1.55824 0.942785 -0.175791 0.48187 -0.858428 108 75 64
-9.58429 -1.53737 0.95712 0.52115 0.438728 -0.732066 159 140 133
-9.45347 -1.48156 0.891337 0.554865 -0.533464 -0.638389 167 158 156
-9.53105 -1.53019 0.972977 -0.0813371 0.289732 -0.953646 168 159 156
-9.42981 -1.53273 0.965633 0.108891 -0.178076 -0.977973 142 132 138
-9.31049 -1.52129 0.935678 0.0383722 -0.50463 -0.862483 140 131 141
-9.35103 -1.52943 0.965589 -0.0013662 0.229459 -0.973317 143 131 140
-9.25196 -1.52394 0.928487 0.130684 -0.47615 -0.869599 133 122 132
-9.28903 -1.54006 0.979829 0.0204283 -0.063093 -0.997799 137 126 135
-8.36085 -1.43633 0.952188 0.365662 -0.0237999 -0.930443 178 141 121
-10.613 -1.5167 0.885175 0.459258 -0.0451443 -0.887155 75 43 42
-10.5046 -1.51657 0.909796 0.0503037 0.505526 -0.861343 48 30 28
-10.4369 -1.52488 0.962972 0.33843 -0.190286 -0.921551 55 33 33
-10.3345 -1.5287 0.965302 0.0261257 -0.285882 -0.957909 109 77 74
-10.1845 -1.49577 0.92223 -0.0318666 0.340933 -0.939547 130 94 90
-10.0216 -1.47633 0.975493 0.131075 -0.135614 -0.982053 111 81 75
-9.91873 -1.46007 0.932388 0.0633909 0.818469 -0.571042 108 79 73
-9.86744 -1.48845 0.91792 0.0551565 0.716226 -0.695685 107 74 65
-9.81103 -1.4842 0.914862 0.0143117 0.580866 -0.813873 106 74 64
-9.76246 -1.4747 0.88293 0.0204752 -0.36375 -0.931272 103 72 63
-9.73257 -1.46484 0.934242 0.0848364 0.57609 -0.812972 104 76 67
-9.66575 -1.43689 0.939697 0.340874 0.683915 -0.645031 123 101 94
-9.58338 -1.48321 0.978753 0.298957 0.405168 -0.863981 172 157 151
-9.42013 -1.43007 0.925373 0.156471 -0.594224 -0.788932 161 157 156
-9.38062 -1.48082 0.94452 0.316599 -0.55359 -0.770262 174 164 167
-9.2366 -1.48481 0.994113 0.109064 0.0248303 -0.993724 179 171 169
-9.14979 -1.44598 0.994372 0.757964 -0.491411 -0.428959 172 166 158
-8.35207 -1.37244 0.942794 0.399608 -0.025057 -0.916344 176 140 119
-10.0485 -1.41122 0.959886 0.311226 0.895424 -0.318361 187 168 165
-9.98515 -1.44157 0.929963 0.119184 0.264322 -0.957042 125 98 92
-9.93248 -1.44339 0.957736 0.299666 -0.556598 -0.774854 143 118 113
-9.85751 -1.4402 0.954915 0.0947758 0.165952 -0.981569 133 111 105
-9.77893 -1.43468 0.940366 0.0400398 0.464537 -0.884648 127 104 97
-9.62274 -1.43052 0.972933 0.268548 -0.171746 -0.947832 165 150 144
-9.53562 -1.42124 0.961376 0.0178079 0.141272 -0.989811 175 166 161
-9.28021 -1.37507 1.00536 -0.0896614 0.894248 -0.4385 83 76 65
-9.16039 -1.36109 1.00717 0.15935 0.121916 -0.979665 80 74 58
-9.15065 -1.41473 1.03245 0.264914 0.0819525 -0.960783 94 88 75
-10.239 -1.39113 0.960535 0.250175 0.912851 -0.322669 182 167 162
-9.1626 -1.30364 0.975988 -0.390306 0.453713 -0.801128 94 87 68
-9.09756 -1.35134 1.00522 0.178635 -0.160913 -0.970668 83 75 59
-9.08889 -1.30179 0.998978 -0.228275 0.580467 -0.781632 97 83 64
-9.05568 -1.34545 0.992369 0.147541 0.0437726 -0.988087 84 75 60
-8.77186 -1.32657 1.0286 0.25546 0.587773 -0.767635 96 89 67
-8.15375 -1.22888 0.91089 0.395908 -0.0205248 -0.918061 85 76 73
-7.42127 -1.28362 1.25477 0.697518 -0.499359 -0.513917 127 90 73
-6.92728 -1.23349 1.09193 0.821915 0.518208 -0.236466 126 89 70
-10.3329 -1.30437 0.908691 0.779381 -0.429238 -0.456421 153 152 147
-10.2619 -1.30301 0.949153 0.708425 -0.510456 -0.48741 143 132 126
-9.57935 -1.25875 0.962621 0.196803 -0.643383 -0.739815 73 78 87
-9.39512 -1.28506 0.964588 -0.379775 0.119784 -0.917291 179 173 167
-8.13961 -1.20215 0.943843 -0.0373734 0.125438 -0.991397 89 82 78
-10.2295 -1.22324 0.934409 0.0795678 0.141495 -0.986736 96 74 63
-10.1162 -1.21195 0.941403 0.191778 -0.00435281 -0.981429 106 78 67
-10.0762 -1.22128 0.992763 0.424584 0.250432 -0.870065 101 80 69
-8.1544 -1.15591 1.01038 -0.526664 0.16471 -0.833964 89 81 77
-10.2681 -1.15965 0.941248 0.130153 -0.498971 -0.856789 119 97 74
-10.2702 -1.18156 1.00544 0.128316 -0.504342 -0.853917 124 96 74
-10.1831 -1.15736 0.918397 0.268802 -0.595175 -0.757306 121 95 73
-10.0836 -1.1514 0.930016 0.271429 -0.455948 -0.847607 130 99 79
-9.99889 -1.15057 0.954361 0.196396 -0.221972 -0.955069 100 78 62
-9.24334 -1.11871 1.01286 -0.371992 0.110038 -0.921691 48 44 36
-9.16433 -1.15066 0.962978 0.0689583 0.0216651 -0.997384 68 64 47
-9.04392 -1.12869 0.962259 0.0771623 -0.163213 -0.983569 120 88 72
-9.06576 -1.145 0.99154 0.164501 0.109561 -0.980273 116 85 68
-8.14825 -1.05883 0.907372 0.298521 0.827169 -0.476105 82 75 70
-8.14723 -1.05506 0.914906 0.723371 -0.00232577 -0.690456 84 76 73
-6.82055 -1.05909 1.06034 0.50311 0.823506 -0.262143 132 107 97
-10.2469 -1.10789 0.929422 -0.0453945 -0.281716 -0.958423 143 118 90
-10.0451 -1.08916 0.922675 0.225375 0.0993964 -0.969189 142 113 90
-9.85778 -1.10222 0.975442 0.480868 -0.307939 -0.820938 117 99 94
-9.18387 -1.05873 0.974467 0.0594122 0.0136309 -0.998141 45 41 35
-9.12517 -1.07405 0.94859 -0.288583 -0.145668 -0.946309 46 39 30
-9.11266 -1.09895 1.00609 -0.329455 -0.104104 -0.938414 56 37 27
-10.3644 -1.09017 0.929928 0.22811 -0.536461 -0.812511 141 119 99
-10.2732 -1.09542 0.964272 0.0312017 -0.416867 -0.908432 148 121 93
-10.1621 -1.04274 1.01716 0.603583 0.747399 -0.277637 133 118 104
-9.96945 -1.07721 0.970202 0.494293 0.0432327 -0.86822 115 89 76
-9.13943 -1.0229 0.993745 -0.356437 0.10384 -0.928531 53 44 37
-8.12509 -0.920004 0.906781 0.399057 0.832202 -0.384959 84 79 75
-8.17224 -0.983522 0.938667 -0.147802 0.261008 -0.953954 79 70 65
-7.7486 -0.939378 1.07872 -0.385077 0.0419493 -0.921931 126 91 74
-9.29353 -0.974303 1.08497 0.320344 0.0838421 -0.943584 60 45 42
-9.16854 -0.950439 0.99915 0.134909 -0.0235177 -0.990579 49 35 28
-9.07759 -0.949269 1.02173 0.0700355 -0.280948 -0.957164 102 74 60
-10.4197 -0.948956 0.931751 0.9031 -0.272257 -0.332094 74 59 50
-10.327 -0.932208 0.887596 0.793142 -0.522101 -0.313586 60 42 32
-9.20493 -0.908218 1.00804 -0.370482 0.0574951 -0.927058 70 50 45
-9.32082 -0.929608 1.13745 -0.328363 0.0244632 -0.944235 68 48 45
-9.15221 -0.90808 1.01459 -0.373188 0.087485 -0.923622 51 32 24
-9.10366 -0.919773 0.991692 0.392185 0.135301 -0.909882 59 38 28
-8.14076 -0.842158 0.960147 -0.0482475 -0.285282 -0.957228 83 77 73
-9.33561 -0.848094 1.11855 0.039175 0.119945 -0.992007 76 54 55
-9.31791 -0.852433 1.09981 -0.0326339 0.0599102 -0.99767 79 56 57
-8.16614 -0.809461 0.978815 -0.141502 0.0142639 -0.989835 78 72 68
-8.13672 -0.770972 0.962287 0.146361 -0.0609958 -0.987349 83 78 74
-10.4258 -0.837914 0.93356 0.956533 0.0471597 -0.287787 51 45 42
-10.3201 -0.819443 0.887818 0.775086 -0.5463 -0.317486 52 44 39
-7.59312 -0.705586 1.06682 0.290561 -0.0357451 -0.956189 182 172 166
-9.1356 -0.672288 0.820241 0.400845 -0.731683 -0.551329 52 39 39
-9.20823 -0.675961 0.892952 0.408965 -0.721907 -0.558209 54 44 44
-7.60357 -0.537805 1.05559 0.447902 -0.0819104 -0.890323 174 165 158
-6.16025 -0.504898 1.11688 -0.016254 -0.041591 -0.999003 145 144 137
-9.76222 -0.590187 1.21636 0.373058 -0.773535 -0.51232 136 138 134
-9.74332 -0.648002 1.31295 -0.328084 0.30773 -0.89312 139 141 137
-8.38164 -0.536131 0.926198 0.367972 0.0244555 -0.929515 99 67 49
-8.17338 -0.521096 0.998282 -0.271174 0.0131105 -0.962441 71 68 63
-9.55938 -0.516095 1.10109 0.757422 -0.63175 -0.164936 149 154 148
-9.53534 -0.549156 1.18586 0.325605 -0.210756 -0.921717 160 160 155
-4.95061 -0.337416 1.15322 -0.658224 -0.298372 -0.691169 18 16 19
-7.19152 -0.374952 1.11257 0.703831 0.101122 -0.703133 96 39 39
-8.12997 -0.330706 0.939438 0.637781 0.513161 -0.574371 71 71 66
-8.00196 -0.233628 1.0284 0.183943 -0.815808 -0.54829 134 109 86
-7.95982 -0.259646 1.06536 0.0337619 0.0654105 -0.997287 132 110 93
-8.14863 -0.225065 0.944538 0.388387 0.327995 -0.861147 64 64 58
-8.1384 -0.134461 0.915074 0.387744 -0.776738 -0.496319 61 61 54
-8.00792 -0.147033 1.04599 0.0164963 -0.748976 -0.662392 130 106 82
-7.9686 -0.146918 1.0623 -0.0455814 0.0916685 -0.994746 130 111 91
-8.16942 -0.100717 0.926622 0.306397 -0.803977 -0.509648 59 57 49
-7.98804 -0.114709 1.04927 0.334064 -0.296886 -0.894572 129 107 84
-7.72907 -0.106483 1.08052 -0.146561 0.0263684 -0.98885 49 49 41
-7.31846 -0.0595591 1.09427 0.078393 -0.797781 -0.59783 102 78 61
-8.16102 -0.0670593 1.01123 -0.396374 -0.192269 -0.89773 62 63 56
-8.00675 -0.0716356 1.03456 0.0556699 -0.567176 -0.821713 125 103 78
-6.20851 0.0214513 0.902456 0.00358998 -0.861951 -0.506978 90 74 52
-7.14318 0.0385311 0.903264 0.115441 -0.857857 -0.500755 91 79 55
-8.4408 0.0246741 0.942937 0.794495 0.525282 -0.304723 70 54 36
-8.29624 0.00582956 0.947237 -0.142899 0.73851 -0.658926 85 73 54
-8.23974 0.0331666 0.963384 0.40441 0.813061 -0.418789 51 50 32
-8.1335 0.0532593 0.930911 0.176611 -0.386127 -0.905381 75 80 60
-8.10394 0.0535668 0.957181 -0.229623 -0.672786 -0.703301 77 82 60
-7.48467 0.0836813 1.0539 0.0390995 -0.467138 -0.883319 96 102 71
-7.45486 0.0851031 1.08674 0.604512 0.652049 -0.4576 101 104 73
-7.02688 0.10738 0.905052 0.0462989 -0.860076 -0.508061 104 109 75
-6.79061 0.0973393 0.99931 0.816288 -0.390427 -0.425723 104 110 76
-6.70774 0.0907482 1.04847 0.878294 0.270807 -0.394035 102 107 74
-6.6429 0.104417 0.65091 0.724724 -0.455325 -0.517159 104 113 76
-8.08687 0.0715938 1.10807 -0.21966 -0.249002 -0.943264 92 96 67
-8.03777 0.0695792 1.05942 -0.423966 -0.314533 -0.849307 90 93 67
-7.96148 0.0723618 1.02559 -0.201918 -0.156259 -0.966857 95 99 69
-7.91996 0.0723211 1.00816 -0.0105698 -0.178271 -0.983925 91 96 66
-7.84588 0.0893456 1.0806 0.626091 0.459156 -0.630227 96 104 72
-6.90294 0.150476 1.59147 0.823721 -0.438463 -0.359491 108 117 80
-12.0698 -8.4313 0.606972 0.338253 0.72487 0.600123 149 146 134
-4.00365 -2.79782 -1.98493 -0.999221 -0.0341939 -0.0196966 144 143 134
7.23614 -15.423 5.62235 0.218756 0.970897 0.0974968 234 230 223
-7.70249 -2.7997 -2.04919 0.98075 0.13364 0.142371 225 217 210
-1.26272 -16.4856 5.98989 -0.329449 0.819586 0.468767 140 137 127
1.14858 -7.81649 1.37992 0.123734 0.990564 -0.0589239 146 144 141
-8.01437 -2.98742 -1.84778 0.140809 0.856472 0.496617 148 146 134
-4.3021 -3.08612 -1.46728 -0.898293 0.378096 0.22386 111 118 109
-7.95119 -2.79454 -1.80767 0.837067 0.364076 0.408372 152 150 137
-4.29474 -3.13142 -1.41445 -0.574945 0.66924 0.470698 110 118 108
-7.98542 -2.83719 -1.73522 0.884978 0.304522 0.35225 152 149 136
-3.61185 -10.2268 3.7457 -0.275564 0.865552 0.418192 144 140 128
-4.07543 -10.3141 3.84872 -0.334052 0.850913 0.405409 167 158 148
-4.06177 -10.4544 4.1003 -0.179397 0.894088 0.410395 167 159 149
-11.9652 -5.6626 0.318605 0.995754 0.0917416 0.00764428 140 138 129
-7.67498 -2.94906 -1.49212 -0.11755 0.946915 0.299223 222 216 209
-7.50416 -3.03554 -1.41146 0.680844 0.621412 0.387684 151 147 134
-4.22237 -8.56266 2.76585 -0.13916 0.907398 0.396563 151 146 135
-4.12186 -9.24398 3.30076 -0.185547 0.894722 0.406258 154 148 138
-15.0403 -15.5466 7.61172 0.665905 0.714155 0.215761 249 246 240
-4.22479 -8.63832 2.95239 -0.139042 0.906626 0.398367 155 146 137
-4.33222 -8.25061 2.68453 -0.257084 0.884935 0.388326 155 146 136
-4.33222 -8.25061 2.68453 -0.257084 0.884935 0.388326 155 146 136
-4.40712 -6.66053 1.49114 -0.189744 0.896612 0.400105 134 133 122
-4.30472 -6.15945 1.19155 -0.202223 0.896446 0.394323 126 125 114
-11.7627 -5.38207 0.320238 0.997635 0.065086 0.0221138 138 135 126
-4.27685 -7.46774 2.34445 -0.942206 0.257923 -0.21383 135 133 123
-4.35067 -6.04803 1.18535 -0.208653 0.898457 0.386313 127 126 115
-4.35067 -6.04803 1.18535 -0.208653 0.898457 0.386313 127 126 115
-4.20902 -6.10563 1.21701 -0.211978 0.89541 0.391543 124 124 113
7.48225 -15.9895 9.62936 -0.436764 0.782955 0.442966 236 238 234
-4.37424 -7.39039 2.38267 -0.939129 0.283796 -0.193638 136 134 124
-4.09533 -6.70124 1.9211 -0.522771 0.784112 0.334483 126 126 115
6.89032 -13.5864 8.71602 -0.598767 0.715149 0.360611 117 119 115
-4.87074 -6.95747 2.62466 -0.903116 0.410333 -0.126526 155 147 136
-4.81735 -6.6493 2.69376 -0.924194 0.288498 -0.25027 142 138 127
-4.15648 -2.83929 -0.851899 -0.726775 0.681049 0.089276 123 130 125
-4.5729 -6.57242 3.8398 -0.794636 0.60675 0.0202165 119 118 107
-4.20117 -2.92393 -0.199236 0.218179 0.975858 0.00991067 131 122 115
-4.13673 -5.68581 3.08359 0.467724 0.882274 -0.0531733 106 109 99
-4.31663 -2.91842 -0.125132 0.17256 0.984965 0.00816157 120 109 102
-4.21244 -2.9034 -0.134493 0.0717883 0.997328 0.0135147 135 127 120
-9.62132 -2.36783 -0.411797 0.989827 0.142277 0.000490271 121 125 116
-9.58108 -2.3401 -0.416686 0.996682 0.0806029 0.0113523 123 127 118
-9.60593 -2.35737 -0.402558 0.96747 0.220238 0.124487 122 126 117
-9.58683 -2.31968 -0.338146 0.949888 0.312564 0.00417536 142 137 129
-9.58683 -2.31968 -0.338146 0.949888 0.312564 0.00417536 142 137 129
-7.19116 -3.54814 1.70282 0.0854851 0.0593234 -0.994572 105 98 86
-5.7438 -2.76355 0.69385 -0.0833431 0.735505 -0.672374 139 133 122
-9.4702 -2.19543 -0.206176 0.996384 0.0390095 0.0754775 138 138 130
-9.47953 -2.2007 -0.185753 0.990269 0.110406 0.0847257 138 138 130
-5.57671 -2.10744 -0.0760331 0.0376325 0.994804 -0.0946018 128 131 124
-9.33355 -2.05917 -0.388799 0.983643 0.177703 0.0294674 146 145 136
-0.856643 -2.73937 1.69997 -0.821374 -0.00560209 -0.570363 81 88 95
-8.99063 -1.74444 -0.800157 0.893493 0.390765 0.221297 178 180 170
-6.33983 -2.60582 0.956745 -0.604239 0.646912 -0.465188 123 119 108
-6.28594 -2.58693 0.972749 -0.0164775 0.930279 -0.366482 115 111 101
-9.54677 -2.59377 1.04383 -0.186676 -0.022797 -0.982157 196 180 174
-9.51314 -2.38761 0.953976 -0.317446 0.120608 -0.940575 196 173 165
-9.42567 -2.44416 0.954377 -0.153999 -0.0837207 -0.984518 194 173 169
-8.83001 -2.41634 1.01996 -0.0417559 0.637195 -0.769571 83 80 98
-5.53565 -2.28576 1.13782 -0.0702447 -0.081196 -0.99422 61 50 50
-10.1436 -2.37865 0.91469 0.156311 0.374468 -0.91397 115 79 69
-10.7636 -2.31036 0.853328 -0.0766175 0.711426 -0.698572 125 103 98
-7.59859 -2.17114 0.985597 -0.22832 0.0122083 -0.97351 143 106 93
-10.8061 -2.21873 0.812167 0.467716 0.878708 -0.095466 73 62 59
-10.7515 -2.22999 0.850788 0.911049 0.351692 -0.215181 63 53 51
-9.56494 -2.20246 1.04311 0.404682 -0.432746 -0.805583 198 179 173
-7.6299 -2.12465 1.00327 -0.449363 -0.21506 -0.867077 143 103 90
-7.39496 -2.06196 1.00497 0.0938245 0.0640714 -0.993525 187 179 173
-10.9048 -2.10291 0.879915 -0.04284 0.0129353 -0.998998 61 46 47
-11.1307 -1.99248 0.87058 0.439489 0.343082 -0.830147 170 151 150
-7.23296 -1.90304 1.04891 0.0542996 0.113323 -0.992073 79 51 53
-9.13373 -1.86507 0.975838 -0.135479 0.925284 -0.354254 127 107 120
-8.45989 -1.81986 0.860584 0.0859917 0.113701 -0.989787 130 87 75
-8.5085 -1.84403 0.93022 -0.502074 0.3344 -0.797558 127 85 73
-11.0411 -1.8469 0.872541 0.914615 -0.28734 -0.284457 97 76 75
-8.49061 -1.75711 0.904779 -0.489398 0.128202 -0.862586 127 84 73
-10.9167 -1.7879 0.897952 0.165106 0.363375 -0.916896 111 81 79
-9.60404 -1.75671 0.871317 0.890907 0.229463 -0.391958 118 81 69
-8.03973 -1.58958 0.933855 0.649565 0.0805159 -0.756031 137 102 86
-6.87994 -1.46014 1.1206 -0.667962 -0.184338 -0.721003 121 87 69
-9.01303 -1.48205 0.986978 0.116224 0.109239 -0.987198 185 174 174
-4.93495 -1.22759 1.15043 -0.14051 -0.194759 -0.970735 89 46 51
-2.17932 -1.0823 1.4651 -0.272145 -0.551341 -0.788645 168 175 186
-2.02289 -1.04453 1.4332 -0.049479 0.724458 -0.687541 188 195 200
-10.781 -1.20615 0.965083 0.954949 0.0120144 -0.296528 96 85 80
-10.5864 -1.14352 0.876138 0.126422 0.0869105 -0.988162 139 132 125
-7.32582 -0.945053 1.03328 0.0346244 -0.16135 -0.98629 167 162 156
-3.95126 -0.854526 1.3193 -0.315112 -0.0506599 -0.947701 78 76 80
-9.29912 -1.03032 1.1287 -0.153823 0.0354827 -0.987461 51 43 39
-7.34829 -0.785628 0.806226 0.850016 -0.247011 -0.46525 17 24 25
-7.77947 -0.644715 1.06798 -0.118666 -0.258857 -0.958599 126 95 77
-3.79694 -0.476481 1.34872 -0.130183 -0.0927185 -0.987145 146 153 158
-2.13424 -0.393883 1.47856 -0.34748 -0.108473 -0.931392 50 62 63
-5.8403 -0.435088 1.16374 -0.222716 0.417708 -0.880862 144 146 140
-3.0374 -0.309936 1.41453 -0.184263 -0.0632524 -0.98084 48 55 68
-5.67285 -0.105557 1.12475 -0.0112768 -0.0144725 -0.999832 151 154 149
-7.74635 -0.106667 1.08049 -0.0367499 -0.0426956 -0.998412 103 104 95
-8.43974 -0.0799257 0.786769 0.482113 0.825967 -0.29214 86 59 45
-7.16069 0.0468533 0.955469 0.24392 -0.862286 -0.443809 93 83 58
-8.18099 0.0535159 0.94047 -0.396147 -0.437773 -0.807107 77 82 62
-7.8844 0.0923697 1.04151 0.906954 -0.357929 -0.222083 102 109 77
-7.22266 0.0948781 1.10652 0.0797121 -0.854679 -0.513 93 101 68
-7.06828 0.109917 0.718515 0.270296 -0.862093 -0.428643 105 111 77
-7.0706 0.110215 0.728021 0.264373 -0.862135 -0.432239 105 111 77
-6.84486 0.149967 1.60661 0.796133 -0.477201 -0.37209 106 116 78
-1.13511 -17.3402 6.51697 -0.573466 0.797228 0.188582 141 140 129
-7.87041 -2.77417 -1.86554 0.293916 0.754447 0.586876 161 155 143
-7.86987 -2.82883 -1.80681 0.223535 0.785688 0.576824 171 163 151
-7.48092 -2.88985 -1.73348 -0.0818146 0.887168 0.454136 178 175 160
-13.0093 -15.9761 5.16852 -0.161598 0.899216 0.406568 153 148 136
7.60871 -15.2263 7.42349 -0.996102 0.0632305 0.0615029 150 152 148
-12.1051 -7.59882 0.446139 0.642271 0.489631 0.589703 137 134 124
-7.48869 -2.91234 -1.67013 -0.0643138 0.888839 0.453684 170 166 152
-12.6322 -9.43009 1.59965 0.731668 0.532698 0.425318 154 149 138
-8.03584 -2.7946 -1.77577 0.372146 0.763508 0.52779 146 144 132
-14.8132 -15.639 5.80959 0.378502 0.881348 0.282775 241 236 233
-3.83261 -10.3576 3.85018 -0.271723 0.866352 0.419048 148 145 134
-14.653 -13.773 4.89754 0.0268598 0.924568 0.380069 184 171 161
-15.0411 -15.6564 6.2046 0.973604 0.195766 0.117354 239 232 225
-4.34372 -6.99116 1.81566 -0.265321 0.906097 0.329535 134 133 123
-14.9947 -15.2712 6.3004 0.841733 0.528583 0.109932 228 218 210
-14.9929 -15.2527 6.28665 0.843792 0.510641 0.165111 227 216 208
-4.33411 -8.62799 3.14867 -0.278897 0.871039 0.404361 155 147 136
-14.9212 -14.6136 6.29579 0.974037 0.20632 -0.0931924 184 169 160
-15.0841 -15.071 6.57537 0.73303 0.624707 0.269086 204 191 183
-15.0377 -15.266 6.88304 0.993607 0.102405 -0.0475265 221 213 207
-14.8064 -15.8781 7.30692 0.970376 0.179175 -0.162067 249 246 240
-14.3892 -11.3336 4.10081 0.148311 0.898748 0.412621 144 137 126
-14.7535 -11.6484 4.51206 0.745725 0.608682 0.270927 138 134 123
-4.76817 -7.31771 2.60034 -0.924302 0.27315 -0.26656 155 148 137
-4.76817 -7.31771 2.60034 -0.924302 0.27315 -0.26656 155 148 137
-15.1325 -12.1518 5.21652 0.51978 0.808231 0.276752 137 133 122
-4.92769 -7.23906 2.73028 -0.903971 0.410319 -0.120309 163 156 146
-15.347 -14.9191 7.7609 0.888056 0.358013 0.288416 184 168 158
-4.83517 -7.11873 2.7256 -0.923985 0.291864 -0.247116 150 145 134
-4.71335 -6.91226 2.6484 -0.928677 0.249914 -0.274047 141 137 126
-4.77151 -6.48895 2.45429 -0.478648 0.828689 0.290123 136 133 123
-4.79821 -7.26877 3.14969 -0.284173 0.939532 0.191117 144 141 130
-4.85093 -7.32361 3.26746 -0.917439 0.254661 -0.305702 150 145 134
-4.83444 -6.54478 2.58443 -0.493142 0.825191 0.275448 139 136 126
-4.33425 -15.7411 11.1197 0.295764 0.945271 0.137792 228 226 222
-4.71408 -7.07568 3.60073 -0.925978 0.257972 -0.275708 132 131 119
-4.63396 -7.02271 3.47499 -0.928304 0.230819 -0.291505 130 129 118
-4.63095 -7.0402 3.4881 -0.92827 0.237328 -0.286338 130 129 118
-4.68167 -6.80821 3.25863 -0.929605 0.264583 -0.256574 131 130 119
-4.40265 -3.01626 -0.0391607 -0.658886 0.735294 -0.158787 122 123 117
-4.22181 -2.91038 -0.0633131 0.259232 0.947744 -0.185955 129 124 117
-4.32896 -2.89399 -0.0542477 0.283857 0.956678 -0.0647565 101 89 82
-4.43453 -2.88887 0.0266172 0.301329 0.951833 -0.056693 124 121 114
-4.25596 -2.90134 0.0854041 0.356196 0.92165 -0.153901 120 115 108
-4.30341 -2.92184 0.0708737 0.207198 0.971739 -0.113099 90 80 74
-14.9294 -15.7084 12.3569 0.0907353 0.964956 0.246224 154 141 132
-5.08591 -5.34865 3.15856 0.470487 0.108641 -0.875693 87 84 77
-9.55959 -2.38786 -0.861765 0.937444 -0.34793 0.0120072 115 117 108
-20.7697 -15.3637 12.9922 0.733576 0.637985 0.234182 95 87 77
-9.53089 -2.34612 -0.820463 0.943952 0.0754805 -0.321338 128 126 117
-20.3932 -15.8442 14.4051 0.975004 0.222177 -0.00191878 108 103 97
-9.44215 -2.21241 -0.883413 0.91316 0.250411 0.321609 130 131 124
-9.49817 -2.27492 -0.797933 0.933363 0.214281 0.287954 124 125 118
-20.1157 -16.2966 15.9975 0.455875 0.674734 -0.58044 99 91 84
-9.33463 -2.09148 -0.910854 0.913163 0.163934 0.373174 135 134 128
-9.69458 -2.53604 -0.369456 0.984621 0.130319 0.11636 109 107 97
-9.24394 -2.02863 -0.936576 0.697814 -0.142883 -0.701883 138 134 126
-9.7145 -2.47296 -0.343817 0.995193 0.0864995 0.0459306 151 145 135
-9.44737 -2.17987 -0.637761 0.955173 0.0335932 0.294137 117 124 115
-9.45559 -2.18568 -0.632384 0.955528 0.0294579 0.293425 117 124 115
-9.52914 -2.30039 -0.301139 0.968119 0.0127796 0.250166 135 132 122
-7.12449 -2.93409 1.09041 0.127505 0.430726 -0.89343 107 101 90
-9.06174 -1.85824 -0.836049 0.967195 -0.046801 0.249686 134 134 125
-9.53001 -2.31386 -0.206449 0.97388 0.0145241 0.2266 130 130 121
-7.18022 -2.84244 1.05198 0.149891 -0.0975146 -0.983882 82 74 64
-7.18113 -2.85183 1.06196 0.141269 -0.0335275 -0.989403 82 74 64
-7.18034 -2.84367 1.05328 0.151159 -0.104714 -0.982948 97 93 83
-7.08449 -2.85947 1.08685 0.0454395 0.0108255 -0.998908 82 73 65
-3.61444 -2.24014 0.786866 -0.650011 0.741931 0.16439 224 227 229
-9.00092 -1.79735 -0.835358 0.817489 0.440684 0.370822 141 143 130
-5.68814 -2.55944 1.07565 0.0167888 0.572686 -0.819603 116 113 102
-5.52182 -2.64451 1.12912 -0.667003 -0.198436 -0.718144 125 121 109
-8.9981 -1.75371 -0.811931 0.962201 0.0571493 0.266276 152 150 140
-9.21174 -1.89362 -0.483692 0.987434 0.097258 0.124563 160 156 146
-9.21174 -1.89362 -0.483692 0.987434 0.097258 0.124563 160 156 146
-9.10215 -1.80514 -0.597555 0.998413 0.0562757 0.00205357 173 168 157
-9.43379 -2.1284 -0.0555203 0.865155 0.470692 0.173081 158 156 149
-9.44232 -2.16925 0.0109063 0.896617 0.348835 0.27275 143 139 130
-9.47771 -2.24506 0.0969752 0.837864 0.545873 -0.00240889 137 135 125
-9.48767 -2.12533 0.0260694 0.99173 0.0984887 0.0822952 194 185 177
-9.4851 -2.06447 0.102631 0.957217 0.10396 0.270053 136 128 118
-9.47733 -2.17176 0.320038 0.0518017 0.932697 -0.356923 119 99 90
-9.46512 -2.19419 0.267347 0.20401 0.538449 -0.817589 148 136 127
-9.43048 -2.19 0.30224 0.327815 0.395461 -0.85799 135 119 109
-9.35849 -2.16624 0.301253 0.269658 0.519391 -0.810874 127 101 92
-10.49 -2.45071 0.778604 0.469081 -0.474314 -0.744976 107 78 68
-9.57305 -2.16126 0.311039 0.0275433 0.966434 -0.255434 117 98 88
-9.48222 -2.18298 0.470107 -0.307303 0.744471 -0.59273 104 84 74
-10.8855 -2.46828 0.816005 0.459051 0.236869 -0.856251 119 87 79
-10.5771 -2.41473 0.798228 0.281164 0.510906 -0.812356 110 77 69
-10.4934 -2.45045 0.840726 0.900657 0.143281 -0.410228 113 80 72
-9.48331 -2.1332 0.534646 -0.307942 0.732198 -0.607501 117 77 67
-9.51479 -2.20638 0.593316 -0.308225 0.756688 -0.576559 110 80 70
-11.0456 -2.34678 0.804119 0.218295 0.590305 -0.777102 122 95 87
-10.8376 -2.37956 0.844343 0.54251 0.170787 -0.822505 112 81 73
-10.7067 -2.36391 0.824731 0.138497 0.54755 -0.825232 114 81 73
-11.4612 -2.33799 0.775737 0.359033 0.345606 -0.866978 101 70 61
-11.1234 -2.36507 0.856047 -0.0741779 0.51816 -0.852061 127 104 96
-11.0986 -2.34973 0.844659 0.0160578 0.522312 -0.852603 128 105 97
-10.9237 -2.29485 0.811866 0.0603106 0.734079 -0.676381 129 106 100
-4.95287 -1.84962 1.1523 -0.0665632 -0.135811 -0.988496 113 97 99
-11.5135 -2.26762 0.784484 0.338311 -0.133221 -0.931557 96 69 60
-11.2758 -2.28148 0.809748 0.511461 0.0593786 -0.857253 99 83 75
-10.9509 -2.23587 0.824481 0.014722 0.00732592 -0.999865 89 74 70
-11.0336 -2.27406 0.846176 -0.0764169 0.123686 -0.989375 100 81 76
-11.338 -2.21385 0.818303 0.85623 -0.429328 -0.28731 102 86 78
-11.2563 -2.17666 0.875396 0.732782 -0.241188 -0.636285 37 25 22
-11.2196 -2.16194 0.852433 0.847411 -0.369897 -0.380882 38 27 24
-11.204 -2.19571 0.87318 0.803714 -0.104238 -0.585814 41 32 28
-11.1278 -2.20266 0.87031 0.667558 -0.151996 -0.728879 55 44 41
-11.132 -2.18865 0.886289 0.822408 -0.379557 -0.423771 60 48 46
-11.0313 -2.19291 0.897704 0.646667 0.114465 -0.754135 90 79 79
-11.3534 -2.08484 0.762533 0.948104 0.306011 -0.0863537 125 100 92
-11.2749 -2.10407 0.798153 0.924254 -0.241053 -0.296053 63 46 41
-7.58744 -1.87169 1.07336 0.0661711 0.982972 -0.17143 139 102 85
-11.2435 -2.01075 0.793095 0.894802 0.43912 -0.0806451 100 77 72
-11.3706 -1.93742 0.765166 0.947965 -0.318258 -0.00857224 127 99 91
-11.0384 -1.95825 0.897949 0.0794468 -0.0372736 -0.996142 80 58 59
-11.358 -1.91302 0.837006 0.857034 -0.0526621 -0.512561 135 112 106
-11.3031 -1.92144 0.888784 0.415539 0.0279509 -0.909146 138 115 111
-11.2082 -1.8693 0.830444 0.966646 -0.104742 -0.233719 134 109 106
-11.172 -1.91608 0.88142 0.955182 -0.144983 -0.258083 154 129 127
-11.3646 -1.8273 0.79964 0.383591 -0.246106 -0.890107 122 99 92
-11.3297 -1.84469 0.863507 0.494226 0.0316467 -0.868757 68 48 44
-11.219 -1.80009 0.841647 0.967455 -0.107568 -0.229044 57 36 33
-11.2536 -1.74248 0.856176 0.193679 -0.0181265 -0.980897 77 59 53
-11.0776 -1.72363 0.84634 0.149686 -0.297949 -0.942773 95 72 67
-10.9855 -1.72024 0.864001 0.265433 0.0648175 -0.961948 90 67 63
-11.2564 -1.5792 0.820425 -0.0118834 0.571803 -0.820305 96 69 67
-10.974 -1.63027 0.944244 -0.0389482 -0.0253695 -0.998919 82 57 53
-10.9115 -1.54151 0.939662 0.00931805 -0.0521403 -0.998596 95 62 61
-7.7636 -1.23749 0.955591 -0.54833 -0.138352 -0.824738 125 91 75
-7.32339 -1.09141 0.868199 0.0997055 0.962331 -0.25294 127 92 76
-7.99961 -0.967582 0.979241 0.468589 0.869213 -0.157774 166 131 112
-10.6074 -0.791569 0.90899 0.559638 -0.744837 -0.36335 143 144 140
-11.0884 -0.800521 1.00468 0.101136 0.393247 -0.913853 64 41 37
-10.9962 -0.799116 1.01669 0.237023 -0.0177106 -0.971343 88 67 64
-11.1107 -0.720938 1.01116 0.117259 0.278697 -0.953194 59 41 38
-11.0357 -0.723933 1.00229 0.198688 -0.0583791 -0.978322 62 42 38
-10.5763 -0.643754 0.70999 0.747125 -0.546245 -0.37871 93 76 71
-10.43 -0.668544 0.887873 0.796058 0.541524 -0.270266 89 87 86
-4.95279 -0.395708 1.15572 -0.111758 0.879205 -0.46315 17 18 22
-5.10541 -0.330969 1.13837 -0.156136 0.775737 -0.611436 20 20 21
-7.91178 -0.17899 1.06224 -0.00626138 0.376118 -0.926551 128 118 107
-7.20648 0.0350507 0.992702 0.163297 -0.846536 -0.506667 93 77 53
-7.10355 0.0351159 0.649257 0.23033 -0.864065 -0.447593 92 79 54
-6.91225 0.0401115 1.2245 0.20397 0.79633 -0.569434 69 72 50
-7.10891 0.083612 1.03438 0.251015 -0.863079 -0.438277 104 103 72
-7.95983 0.106766 1.06347 -0.508042 0.163788 -0.845616 99 106 73
-7.83207 0.135469 1.12289 0.85431 -0.488989 -0.176192 100 112 75
-4.36106 -2.93592 -0.357052 -0.137452 0.949169 0.28317 121 121 114
-13.7046 -16.2054 2.99894 0.521657 0.664213 0.535439 204 193 180
-13.4283 -16.2429 3.42598 0.438588 0.761115 0.477854 185 175 161
-4.35733 -2.90953 -0.222127 0.154527 0.979373 0.130196 135 130 123
-4.22342 -2.88708 -0.16697 0.185865 0.980615 0.0620283 144 138 131
-4.24991 -2.93889 -0.0841941 0.0594024 0.985121 0.161268 90 82 77
-4.22995 -2.88834 -0.109312 0.266882 0.960687 -0.0765202 144 138 132
-4.22995 -2.88834 -0.109312 0.266882 0.960687 -0.0765202 144 138 132
-4.40377 -2.9313 -0.0355396 -0.12009 0.94298 -0.310432 121 121 114
-4.28637 -2.87323 -0.0465224 0.298864 0.953832 -0.0297444 110 100 93
-4.25722 -2.91865 0.0527472 0.336674 0.93882 -0.0725769 98 96 88
-4.18339 -2.88059 0.0963972 -0.652441 0.738447 0.170343 121 124 119
-4.20517 -2.87149 0.121656 -0.483146 0.817702 0.312944 114 123 120
-4.20292 -2.87504 0.125643 -0.642155 0.745254 0.179536 117 124 121
-4.27832 -2.86916 0.112353 -0.255805 0.864381 -0.432907 138 134 130
-4.27325 -2.87615 0.12854 0.207959 0.977858 0.0233754 112 113 104
-4.178 -2.93191 0.226666 -0.358452 0.886444 0.292796 118 124 120
-7.66023 -3.17984 -1.26625 0.144816 0.861594 0.486501 169 161 150
-4.1775 -2.95314 0.290359 -0.362337 0.886826 0.286794 115 119 112
-4.45083 -15.5844 10.3114 0.432079 0.901715 -0.0147501 180 177 169
-4.28174 -2.90494 0.302899 0.441818 0.872374 -0.209188 101 102 93
-4.22926 -2.89751 0.319988 -0.438857 0.852687 0.283424 112 117 112
-12.7283 -9.26483 1.29155 0.586127 0.559796 0.585734 150 145 134
-12.5726 -9.56399 1.47017 0.581403 0.549871 0.599677 165 159 147
-4.42147 -2.85947 0.245117 0.279135 0.959453 -0.0391583 139 128 120
-4.36736 -2.86323 0.240065 0.37762 0.918305 -0.118818 68 64 53
-12.2784 -8.46798 0.890562 0.59113 0.553985 0.586231 149 144 133
-4.48671 -2.85172 0.267197 0.0135351 0.988463 0.150857 121 118 112
-4.42889 -2.84221 0.284746 0.280932 0.959015 -0.0369792 113 108 97
-4.4013 -15.3107 10.9756 0.209782 0.942072 0.261709 223 219 212
-4.48454 -2.86446 0.338781 0.0216579 0.989927 0.139915 105 106 99
-12.2966 -8.04115 1.05515 0.234611 0.888814 0.393659 140 135 123
-4.84182 -2.67855 0.121356 0.346089 0.937726 -0.0298633 99 103 94
-4.80157 -2.66587 0.120514 0.405697 0.909303 -0.0926178 98 102 94
-12.4501 -8.10631 1.42632 0.471386 0.660368 0.584559 143 137 125
-14.4689 -13.2977 5.28986 0.752741 0.609503 0.248772 178 165 154
-4.86478 -2.65195 0.221961 0.495996 0.843783 -0.204985 65 71 65
-4.6068 -6.27439 4.00324 -0.891129 0.428376 -0.149611 96 95 84
-14.8824 -13.8984 7.56381 0.854031 0.409925 0.320302 174 159 150
-9.88141 -2.56225 -2.04621 0.831665 0.242692 0.499433 108 113 107
-9.89834 -2.61397 -2.00724 0.543592 0.567269 0.618639 100 106 101
-9.64104 -2.44645 -2.04547 0.60591 0.534728 0.589015 97 104 98
-11.3693 -3.62841 -1.47211 0.847202 0.104232 0.520945 132 138 131
-11.1178 -3.49098 -1.4675 0.842198 0.0655269 0.535171 128 133 126
-10.5999 -3.1712 -1.58328 0.916538 0.149689 0.370879 125 132 126
-11.3116 -3.51627 -1.42713 0.770084 0.299362 0.563341 144 150 141
-11.4294 -3.60635 -1.40848 0.852453 0.202009 0.4822 142 148 140
-10.8074 -3.33731 -1.44826 0.874397 0.18346 0.449192 121 128 120
-11.124 -3.3822 -1.47467 0.637875 0.503541 0.58272 145 151 143
-11.1339 -3.3834 -1.46394 0.682944 0.455335 0.57119 146 152 144
-11.0005 -3.3605 -1.44476 0.530407 0.524413 0.666078 133 139 130
-10.7247 -3.1771 -1.47065 0.896214 0.185623 0.402921 133 137 129
-9.3591 -2.57186 -1.52162 0.433629 0.651802 0.62219 167 169 160
-9.35738 -2.59063 -1.46963 0.890035 0.056688 0.452353 153 154 144
-8.81743 -2.17184 -1.6665 0.827975 0.306981 0.469276 140 142 131
-8.91025 -2.26969 -1.60478 0.890297 0.0649082 0.45073 140 141 130
-9.29173 -2.61709 -1.38975 0.896825 0.0512059 0.439412 144 143 133
-9.38377 -2.92375 -1.03836 0.00572909 0.96889 0.247424 134 132 122
-9.35025 -2.95813 -0.994286 0.139079 0.942054 0.305272 145 144 133
-11.5252 -3.47961 -1.44498 0.950369 0.0791187 0.300898 204 208 202
-11.0392 -3.23382 -1.51441 0.685228 0.583467 0.435924 158 164 156
-11.1231 -3.20208 -1.50562 0.207229 0.931625 0.298549 188 192 184
-10.9105 -3.11341 -1.50835 0.630906 0.661398 0.405598 171 177 170
-11.0743 -3.30789 -1.44217 0.546312 0.587263 0.597214 154 161 152
-10.7114 -3.07458 -1.48035 0.585226 0.529206 0.61437 151 156 148
-9.38669 -2.50315 -1.51054 0.893308 0.0464932 0.447034 155 155 146
-9.37184 -2.5118 -1.46549 0.892236 0.0495279 0.448846 174 175 166
-9.41911 -2.56911 -1.40646 0.72586 0.376634 0.575565 188 188 179
-9.41084 -2.566 -1.41243 0.644849 0.46905 0.603458 189 189 180
-8.99714 -2.30726 -1.58816 0.879431 0.0879714 0.467826 145 145 135
-9.3727 -2.60216 -1.4083 0.494338 0.607262 0.621983 153 153 142
-8.82625 -2.19443 -1.61759 0.897956 0.0199573 0.439631 140 141 130
-8.81277 -2.1791 -1.62002 0.900002 0.0163009 0.435581 140 141 131
-9.36387 -2.66607 -1.33159 0.53 0.578433 0.620093 143 139 130
-9.65458 -3.1047 -0.865798 0.147484 0.915916 0.373291 131 130 120
-9.42618 -2.98224 -0.950204 0.0610349 0.95113 0.302699 138 136 126
-10.6754 -2.81764 -1.69356 0.274853 0.791559 0.545792 216 220 212
-11.1863 -3.20688 -1.44107 0.693458 0.565462 0.446507 198 201 194
-9.03691 -2.0655 -1.81605 0.925815 0.293932 0.237636 125 129 118
-9.05967 -2.08048 -1.80825 0.914763 0.127238 0.383431 125 129 119
-9.01834 -2.09679 -1.74737 0.417433 0.728409 0.543295 111 113 104
-9.03686 -2.14312 -1.69566 0.908325 0.0582733 0.414186 132 133 121
-9.222 -2.31244 -1.57607 0.928977 -0.146973 0.339706 135 137 126
-9.40525 -2.58398 -1.3654 0.699156 0.40617 0.588394 185 184 175
-9.38677 -2.56907 -1.3766 0.575301 0.538514 0.615655 185 184 174
-9.36747 -2.57523 -1.33322 0.886141 0.0687233 0.458292 165 164 155
-9.47004 -2.98828 -0.852306 0.0202514 0.970752 0.23923 133 131 121
-9.0498 -2.03317 -1.77718 0.892633 0.202462 0.402759 134 137 127
-9.05375 -2.03398 -1.77747 0.796519 0.361626 0.484545 134 138 128
-9.0498 -2.03317 -1.77718 0.892633 0.202462 0.402759 134 137 127
-9.04985 -2.03149 -1.77661 0.790948 0.369463 0.487749 134 137 128
-9.10887 -2.06995 -1.75583 0.805944 0.38439 0.450221 136 140 129
-9.04394 -2.10172 -1.71192 0.559814 0.575967 0.59571 112 113 103
-9.04992 -2.14115 -1.67319 0.90607 0.0717775 0.416996 126 127 116
-9.09957 -2.21077 -1.61343 0.943288 -0.185942 0.275015 138 138 128
-9.34191 -2.42023 -1.46464 0.922849 -0.0876141 0.375064 138 139 129
-9.3754 -2.49063 -1.33321 0.881381 0.0823671 0.465169 164 164 154
-9.54582 -2.73871 -1.12147 -0.206093 0.941181 -0.267775 153 149 140
-9.30149 -2.7288 -1.01425 0.984878 -0.173213 0.0034634 135 131 120
-9.05216 -1.95133 -1.8192 0.788578 0.348794 0.506445 147 153 142
-9.01285 -1.9443 -1.79725 0.89301 0.13543 0.429176 144 148 137
-8.90119 -1.87369 -1.82763 0.508313 0.695583 0.507722 140 144 134
-9.04943 -1.99449 -1.79058 0.837887 0.347727 0.42075 142 147 138
-9.01285 -1.9443 -1.79725 0.89301 0.13543 0.429176 144 148 137
-8.97233 -1.9165 -1.81572 0.793755 0.335233 0.507515 148 152 142
-9.04943 -1.99449 -1.79058 0.837887 0.347727 0.42075 142 147 138
-9.07303 -2.05294 -1.71307 0.711804 0.421479 0.561863 134 137 127
-9.07977 -2.09168 -1.67315 0.678601 0.46024 0.572433 126 128 118
-9.05418 -2.10561 -1.64745 0.708977 0.425528 0.562385 113 115 103
-9.37602 -2.5124 -1.28288 0.84782 0.167451 0.503152 186 183 174
-9.36961 -2.53329 -1.23879 0.819426 0.225378 0.527016 192 189 179
-9.50362 -2.66799 -1.10638 0.0642225 0.96838 0.24107 170 166 157
-9.20417 -2.4376 -1.22192 0.234384 0.87841 0.416486 158 154 145
-9.04695 -2.39937 -1.23958 0.910814 0.088385 0.403245 145 142 131
-9.0931 -2.37624 -1.22965 0.372555 0.831037 0.413014 148 144 135
-9.06015 -2.44136 -1.17985 0.369159 0.0655864 -0.927049 149 145 133
-16.482 -16.7989 14.6163 -0.122383 0.985423 0.118167 109 94 85
-9.09411 -1.92342 -1.82067 0.889717 0.0586534 0.452729 166 172 161
-9.05303 -1.91044 -1.78454 0.886717 0.0799602 0.455345 159 163 155
-8.92743 -1.85635 -1.85481 0.782038 0.410714 0.468754 151 156 145
-9.11236 -1.94775 -1.77073 0.926403 -0.116904 0.357925 160 165 157
-8.98737 -1.87821 -1.80807 0.906591 0.0686644 0.416387 161 165 155
-9.14293 -2.09836 -1.62099 0.908635 0.0565145 0.41375 138 138 129
-9.08679 -2.13335 -1.53756 0.703587 0.432187 0.564073 112 113 102
-9.05192 -2.0973 -1.52559 0.7102 0.487042 0.508337 116 116 106
-9.2896 -2.35815 -1.33067 0.887574 0.0677652 0.455653 143 141 131
-9.35513 -2.42922 -1.24823 0.887405 0.0654926 0.456315 148 146 135
-9.36038 -2.43367 -1.25205 0.875385 0.100518 0.472861 148 145 135
-9.08165 -2.33684 -1.20237 0.129117 0.945754 0.298124 155 150 142
-9.04559 -2.36795 -1.20652 0.777623 0.617527 -0.118165 146 141 131
-9.02758 -2.32331 -1.18401 0.972437 -0.0446291 -0.228855 147 143 133
-9.04559 -2.36795 -1.20652 0.777623 0.617527 -0.118165 146 141 131
-9.04003 -2.3939 -1.15832 0.921355 0.143254 0.361361 145 141 130
-9.03846 -2.42514 -1.11043 0.932786 0.0331897 0.3589 147 142 132
-9.07878 -2.45271 -1.08365 0.915603 0.149201 0.373378 144 139 128
-9.61203 -2.9858 -0.564929 0.978516 0.123976 0.164731 144 134 126
-9.61992 -3.00829 -0.536555 0.941066 0.113251 0.318698 142 133 124
-5.75221 -2.56141 0.92596 -0.4184 0.396008 -0.817386 110 111 100
-8.99749 -1.80732 -1.83379 0.932036 -0.303827 0.197478 208 212 200
-9.17525 -2.00641 -1.69482 0.942521 -0.150272 0.298452 160 163 153
-9.19665 -2.0376 -1.63545 0.72276 0.535251 0.437178 156 158 149
-9.07327 -2.07793 -1.49145 0.586529 0.541684 0.602132 128 128 118
-9.57164 -2.67876 -0.958103 0.887287 0.146582 0.437304 194 190 182
-9.06368 -2.43541 -1.01497 0.688493 -0.188413 -0.700341 148 141 131
-8.92994 -1.76077 -1.83885 0.889765 0.058902 0.452602 199 202 193
-9.00091 -1.82877 -1.7623 0.88963 0.058845 0.452876 189 193 184
-9.08583 -1.90071 -1.6786 0.935813 -0.280128 0.213966 193 197 188
-9.16772 -1.99576 -1.63625 0.84298 0.310226 0.439483 161 163 155
-9.34381 -2.12229 -1.52564 0.898132 -0.419117 -0.13304 162 164 158
-9.34046 -2.12133 -1.53317 0.986968 0.0634478 0.147879 161 162 156
-9.48213 -2.23876 -1.4103 0.999707 0.023766 -0.00447935 145 148 141
-9.1056 -2.0884 -1.46075 0.902518 0.0777369 0.423579 133 132 123
-9.13169 -2.09836 -1.43275 0.901679 0.0871086 0.423542 136 135 126
-9.0836 -2.13323 -1.38918 0.907271 0.0625954 0.415863 125 123 113
-9.101 -2.16649 -1.33583 0.9077 0.0612471 0.415127 135 134 122
-9.5214 -2.53849 -0.996061 0.905028 0.0733048 0.418987 140 138 127
-9.5539 -2.58944 -0.921629 0.906169 0.0698981 0.4171 157 154 144
-8.96203 -2.28695 -1.06777 0.694203 -0.187156 -0.695021 149 142 134
-9.71077 -3.01024 -0.430258 0.967784 0.251518 -0.0115713 148 139 129
-9.3184 -2.08971 -1.4673 0.940765 -0.173828 -0.291109 158 159 151
-9.31807 -2.08949 -1.46746 0.945132 -0.176671 -0.274797 158 159 151
-9.39637 -2.25437 -1.26541 0.638691 0.487797 0.595086 140 140 129
-9.1093 -2.11632 -1.28909 0.706633 0.427705 0.563683 123 122 111
-9.5444 -2.58582 -0.849315 0.894689 0.101038 0.435112 166 162 153
-9.55611 -2.62706 -0.784957 0.878186 0.15446 0.452694 195 191 183
-9.57833 -2.68133 -0.712422 0.871427 0.238829 0.428458 187 182 174
-9.57616 -2.72111 -0.655639 0.878226 0.289889 0.380374 158 150 143
-9.56214 -2.74876 -0.605532 0.923006 0.298353 0.242994 153 144 137
-9.55339 -2.72378 -0.607334 0.911417 0.144455 0.385295 154 144 138
-20.3473 -16.1522 13.9178 0.417201 0.840539 0.345599 114 106 100
-9.27149 -1.99786 -1.49581 0.676399 -0.418988 -0.60575 205 208 199
-9.19391 -1.96636 -1.48249 0.797104 -0.463642 -0.38686 187 189 181
-9.3654 -2.13797 -1.28084 0.9007 0.127601 0.41528 148 149 140
-9.00624 -1.98534 -1.36549 0.690701 0.448502 0.567255 139 138 127
-9.12256 -2.08286 -1.25986 0.705786 0.428724 0.56397 137 135 123
-9.49091 -2.36497 -1.02019 0.962946 -0.266272 0.0428226 131 127 116
-9.58293 -2.5797 -0.730777 0.906015 0.0894537 0.413685 147 141 133
-9.5621 -2.60535 -0.686794 0.832354 0.340944 0.436972 183 177 170
-6.51244 -2.67721 1.0955 0.640834 -0.0106452 -0.767606 112 105 96
-11.631 -2.70794 -1.58491 0.82095 0.0319715 0.570104 194 199 189
-9.3049 -2.06011 -1.31191 0.966532 -0.200919 -0.15952 155 154 147
-9.4884 -2.29864 -1.02381 0.84309 -0.211055 -0.494627 150 145 134
-9.44836 -2.26833 -1.0454 0.923189 -0.0171019 -0.383965 141 139 128
-9.59885 -2.57124 -0.626659 0.893555 0.140021 0.42656 123 117 110
-11.5915 -2.60545 -1.57002 0.877839 0.0650945 0.474512 193 194 187
-11.5154 -2.58036 -1.53154 0.679286 0.358489 0.640356 196 197 189
-10.8749 -2.35359 -1.62429 0.600493 0.539792 0.589942 197 203 192
-10.3014 -2.31772 -1.34711 0.910802 -0.34245 -0.230582 236 237 225
-9.26954 -1.97608 -1.32271 0.955786 -0.0319249 -0.292325 166 169 159
-9.18985 -1.91752 -1.36946 0.925639 -0.371943 0.0696397 214 214 207
-9.39417 -2.13417 -1.13812 0.929939 -0.20717 -0.303798 158 154 146
-9.40475 -2.17636 -1.0694 0.962424 -0.0306142 -0.269821 153 148 140
-9.42998 -2.23874 -0.990663 0.557405 0.115729 -0.822136 141 138 128
-9.47172 -2.30322 -0.926312 0.98041 0.0804091 0.179805 138 135 125
-9.51076 -2.36468 -0.779419 0.701041 0.420856 -0.575692 125 121 112
-7.9859 -3.17192 1.40003 -0.43527 -0.0810892 -0.89664 116 107 98
-7.65183 -2.89876 1.14363 -0.158651 0.348693 -0.923712 106 98 87
-7.55217 -2.8615 1.17223 -0.01443 0.151665 -0.988326 99 90 80
-7.3726 -2.68489 0.967741 0.247269 -0.221477 -0.943295 94 84 74
-11.5993 -2.54271 -1.50481 0.958802 0.206106 0.195495 113 108 103
-11.5826 -2.5968 -1.51639 0.67311 0.301219 0.675418 197 196 190
-11.6032 -2.57442 -1.45173 0.981335 0.189748 0.0312719 172 170 162
-11.5255 -2.57507 -1.42624 0.799263 0.190979 0.56983 203 205 195
-11.5569 -2.63772 -1.36835 0.768286 0.346426 0.538262 204 208 198
-10.6202 -2.24871 -1.57231 0.549579 0.584556 0.596873 206 211 198
-10.5346 -2.18875 -1.58577 0.466029 0.658637 0.590775 205 209 196
-9.94017 -2.08906 -1.45763 0.854574 0.211183 0.474452 235 236 224
-9.97488 -2.09249 -1.4366 0.764081 0.317638 0.561503 233 234 222
-9.14824 -1.87821 -1.33773 0.906798 -0.419642 -0.0402287 219 218 212
-9.29284 -1.98629 -1.23813 0.985142 0.0979561 -0.141068 179 179 171
-9.32338 -2.03172 -1.18288 0.956395 0.0214724 -0.291287 169 168 159
-9.27564 -2.03761 -1.15563 0.885845 -0.173394 -0.430364 155 153 144
-9.31111 -2.06445 -1.10407 0.928878 -0.212795 -0.303156 165 161 153
-9.42807 -2.1933 -0.962 0.624605 -0.439403 -0.645596 140 136 130
-7.62417 -2.90196 1.21218 -0.0384676 0.496843 -0.866987 99 90 79
-11.6067 -2.53433 -1.5206 0.991045 0.124087 0.0493136 100 95 91
-11.595 -2.60351 -1.38478 0.935307 0.0686026 0.347123 207 209 200
-11.4903 -2.58383 -1.34942 0.928926 0.0587658 0.365571 209 213 202
-11.5064 -2.58053 -1.35021 0.575927 0.574548 0.581552 203 207 196
-10.6771 -2.21732 -1.49222 0.6203 0.52097 0.58636 201 205 192
-10.7154 -2.31253 -1.40306 0.460547 0.652095 0.60222 213 216 205
-9.93387 -2.00304 -1.45709 0.810759 0.130491 0.57065 224 224 214
-9.92016 -2.00383 -1.45964 0.717581 0.297958 0.629522 225 226 215
-9.66907 -1.86687 -1.57012 0.932129 -0.317249 0.174612 225 225 215
-9.92176 -1.98623 -1.46738 0.875236 0.207231 0.437056 196 198 187
-9.79958 -1.96111 -1.48007 0.712692 0.455861 0.533161 196 196 187
-9.21537 -1.88494 -1.28291 0.997534 -0.0592751 -0.0375902 197 197 187
-9.20808 -1.92624 -1.18256 0.887101 -0.44414 -0.125668 206 204 195
-9.19312 -1.96231 -1.12755 0.919576 -0.203632 -0.336028 158 155 147
-9.29634 -2.0494 -1.07553 0.825289 -0.473559 -0.307634 163 160 153
-9.2017 -2.01397 -1.0586 0.533482 -0.40241 -0.743951 144 140 133
