ply
format ascii 1.0
element vertex 714
property float x
property float y
property float z
property float nx
property float ny
property float nz
property uchar diffuse_red
property uchar diffuse_green
property uchar diffuse_blue
end_header
-11.1474 -0.725971 -6.84698 0.72034 -0.678835 -0.142457 183 185 189
-11.1409 -0.717281 -6.78408 0.984823 0.0953943 0.144997 147 138 139
-11.1299 -0.701417 -6.78017 0.869279 0.237358 -0.433607 132 121 120
-11.1468 -0.718673 -6.74873 0.966244 0.092926 0.240284 113 93 89
-11.1457 -0.675638 -6.75091 0.968165 0.116079 0.22177 112 93 89
-11.0931 -0.681934 -6.74163 0.86431 0.0210318 0.50252 106 80 71
-11.1485 -0.673544 -6.6879 0.570435 -0.173413 -0.802828 102 73 61
-11.0987 -0.698137 -6.67269 0.502672 -0.0440013 -0.863357 131 103 89
-11.1035 -0.718423 -6.58927 0.635448 -0.678789 -0.368036 167 148 130
-11.1209 -0.707149 -6.54919 0.904508 -0.0315555 -0.425288 159 143 129
-11.1039 -0.717581 -6.51786 0.994622 0.0285569 -0.0995534 97 88 80
-11.1047 -0.722463 -6.52127 0.967779 0.0889555 -0.235563 106 96 87
-11.1029 -0.67834 -6.51883 0.992801 0.0142069 -0.118932 101 91 82
-11.1178 -0.669361 -6.54995 0.934177 -0.108242 -0.339997 158 143 128
-11.1094 -0.660007 -6.55064 0.993278 0.0202149 -0.113978 157 142 127
-11.1004 -0.69797 -6.48494 0.967219 -0.058463 -0.247121 62 59 55
-11.1 -0.659441 -6.48564 0.984877 0.129733 -0.114833 63 59 55
-11.1129 -0.686083 -6.44239 0.905287 -0.0396154 0.42295 76 77 77
-11.1149 -0.678374 -6.38021 0.608425 -0.702322 -0.369542 82 82 82
-11.1251 -0.718068 -6.3746 0.583492 -0.684772 -0.436606 82 83 83
-11.0561 -0.687393 -6.30335 0.972774 0.160244 -0.167428 170 153 141
-11.1032 -0.659445 -6.34994 0.932155 0.0082781 -0.361964 88 81 75
-11.1079 -0.698609 -6.34729 0.836195 0.0295366 -0.547637 88 81 76
-11.0684 -0.677039 -6.29588 0.936771 0.163859 0.309209 170 153 140
-11.1755 -0.660273 -6.19646 0.906398 -0.146607 0.396169 163 151 141
-11.0636 -0.650302 -6.30135 0.9791 0.0999874 -0.177106 170 153 140
-11.1832 -0.696286 -6.14744 0.998477 -0.0536252 0.0129307 176 172 169
-11.1715 -0.668365 -6.19404 0.925078 -0.119891 0.360357 163 151 142
-11.1895 -0.666468 -6.10419 0.978755 0.0463854 0.19972 182 185 187
-11.1988 -0.694156 -6.05759 0.978645 0.123414 0.164384 175 178 181
-11.2123 -0.673208 -5.97942 0.968947 0.174574 0.175116 165 166 166
-11.1969 -0.69787 -6.02751 0.997988 -0.0562499 -0.0292556 168 171 172
-11.2266 -0.679069 -5.87861 0.948498 0.303755 0.0899093 162 156 152
-11.2231 -0.680417 -5.89686 0.983934 0.0377487 0.174494 164 160 157
-11.2345 -0.707215 -5.92022 0.962124 0.179594 0.205093 165 164 161
-11.2313 -0.65267 -5.83753 0.946354 0.31102 0.087637 157 150 147
-11.2334 -0.680407 -5.83031 0.981545 0.187927 0.0353877 152 143 137
-11.2338 -0.649903 -5.84684 0.974767 0.0699375 0.211986 157 150 148
-11.2496 -0.655776 -5.77751 0.979511 0.177479 0.0951765 146 138 136
-11.2638 -0.687101 -5.71921 0.983662 0.178304 0.0248368 122 113 108
-11.2618 -0.656888 -5.67874 0.977954 0.194109 0.0769874 116 110 111
-11.2635 -0.686563 -5.62653 0.909221 0.379132 0.171976 106 96 97
-11.2688 -0.658181 -5.56323 0.995664 0.0830053 0.041998 98 93 97
-11.2601 -0.696043 -5.56791 0.940363 0.285802 0.184483 130 117 119
-11.2732 -0.689156 -5.50817 0.983418 0.160283 0.0848451 118 106 110
-11.2953 -0.630922 -5.41239 0.957569 0.231319 0.171908 87 76 78
-11.281 -0.664128 -5.46931 0.97058 -0.0610527 0.232912 96 87 90
-11.3023 -0.666778 -5.349 0.991908 0.076148 0.101592 94 86 91
-11.2927 -0.679479 -5.28075 0.978661 0.170469 0.114732 84 83 89
-11.2909 -0.630892 -5.22929 0.967336 0.0685069 0.244065 58 64 76
-11.3131 -0.67708 -5.14827 0.976401 0.0291419 0.213989 84 95 107
-11.3266 -0.677491 -5.01508 0.990345 0.0704862 0.119367 160 171 172
-11.3256 -0.635275 -5.0795 0.982605 0.0701237 0.171959 115 128 139
-11.3304 -0.667102 -5.00293 0.990219 0.0627072 0.124636 161 171 173
-11.347 -0.634718 -4.9357 0.963991 0.110257 0.242 168 177 177
-11.3484 -0.644479 -4.92814 0.970778 0.0694574 0.229707 169 177 177
-11.3624 -0.678029 -4.83862 0.937359 0.211723 -0.276644 146 145 142
-11.3685 -0.618399 -4.84618 0.978827 0.109089 -0.173195 156 157 153
-11.3684 -0.645578 -4.90068 0.968166 0.108584 -0.225531 169 177 176
-11.3542 -0.651381 -4.7273 0.993724 0.111852 0.00114423 156 150 149
-11.3729 -0.616987 -4.66058 0.98819 0.0617001 0.14026 147 151 154
-11.4104 -0.646971 -4.59159 0.884937 -0.465627 -0.00881156 155 163 166
-11.4057 -0.658841 -4.4728 0.97882 0.181558 0.0945961 159 166 170
-11.4316 -0.656047 -4.36562 0.982073 0.1501 0.114027 165 172 176
-11.4465 -0.614314 -4.26554 0.98627 -0.123009 0.11018 142 150 150
-11.4492 -0.647899 -4.22479 0.978502 0.144967 0.146694 149 156 158
-11.4433 -0.614261 -4.1007 0.976345 -0.0522416 -0.209812 79 74 75
-11.4534 -0.604677 -4.16748 0.987142 0.0845843 0.135635 168 174 174
-11.4459 -0.586674 -4.02638 0.985586 0.14053 0.0941923 82 67 67
-11.5075 -0.627726 -3.84318 0.999308 0.0108407 0.0355703 77 64 65
-11.5013 -0.591231 -3.77344 0.996619 -0.0478775 0.0667685 58 46 46
-11.5205 -0.624384 -3.64651 0.976015 -0.216856 0.0191647 90 83 85
-11.5351 -0.592744 -3.64044 0.840113 0.541971 0.0218661 56 47 47
-11.5351 -0.592744 -3.64044 0.840113 0.541971 0.0218661 56 47 47
-11.5351 -0.592744 -3.64044 0.840113 0.541971 0.0218661 56 47 47
-11.549 -0.610522 -3.53254 0.980661 0.180455 0.0757588 91 83 84
-11.5399 -0.57926 -3.55693 0.987157 0.140816 0.0754384 64 55 56
-11.5666 -0.585553 -3.41732 0.992622 0.104373 0.0617107 81 76 77
-11.577 -0.58325 -3.22595 0.999612 0.00128183 0.0278217 151 154 154
-11.6069 -0.59615 -3.03082 0.998929 -0.0227388 0.0402959 144 151 150
-11.6245 -0.596499 -3.0154 0.992074 -0.125629 -0.0023995 148 153 151
-11.6156 -0.59344 -2.88227 0.941122 0.331246 -0.0675721 133 134 129
-11.672 -0.552652 -2.87757 0.523732 -0.306405 -0.794872 143 147 144
-11.5917 -0.572232 -2.78615 0.676478 -0.148731 -0.721288 73 65 53
-10.9169 -0.728649 -8.75599 0.987033 -0.00805339 0.160314 121 145 162
-10.9124 -0.713161 -8.63887 0.774026 0.0754206 -0.628645 137 157 172
-10.9111 -0.713152 -8.6392 0.753006 0.0700223 -0.654277 137 157 172
-10.9346 -0.684634 -8.58639 0.987711 0.122642 0.0968809 158 169 181
-10.9645 -0.684345 -8.48026 0.971621 0.116625 0.205793 104 94 95
-10.9602 -0.728107 -8.42515 0.745756 0.23498 0.623404 112 91 88
-11.0001 -0.702416 -8.37262 0.759448 -0.327797 0.561949 114 99 97
-11.0069 -0.667941 -8.33536 0.753716 -0.239772 0.611899 159 157 158
-11.0209 -0.712574 -8.33428 0.887145 -0.200789 0.415521 112 95 93
-11.0096 -0.682011 -8.29631 0.959075 0.164006 0.23082 140 134 134
-11.0111 -0.688965 -8.2717 0.996425 0.0226443 0.0813921 127 119 118
-11.0485 -0.732942 -8.27415 0.861541 -0.497428 0.10155 109 91 85
-11.0158 -0.670025 -8.23887 0.993604 0.0146998 0.111961 160 159 160
-11.0211 -0.709146 -8.23919 0.996048 0.0876789 -0.0141389 112 98 92
-11.0345 -0.691524 -8.20671 0.900557 -0.225898 -0.371438 129 120 120
-11.018 -0.670261 -8.17207 0.962994 0.260286 -0.0699606 156 155 157
-11.0203 -0.670095 -8.17281 0.973391 0.184747 -0.135569 156 156 158
-11.0163 -0.716766 -8.16613 0.834173 0.413258 -0.365202 111 96 92
-11.0159 -0.707805 -8.17237 0.918433 0.0649204 -0.390214 111 98 95
-10.992 -0.686222 -8.13694 0.790731 0.535285 -0.297009 123 117 117
-11.0215 -0.689456 -8.1399 0.980373 0.154573 -0.122379 125 120 121
-11.0245 -0.666356 -8.10238 0.976774 0.206636 0.0566973 165 173 177
-11.0225 -0.684863 -8.07036 0.983166 0.169439 -0.0683768 167 177 183
-10.9824 -0.699357 -8.10234 0.755658 0.541732 -0.368114 148 145 147
-10.9379 -0.693195 -8.10034 0.830145 0.557403 0.0127175 145 142 143
-11.0603 -0.670435 -7.56375 0.95002 -0.16466 0.265235 48 61 65
-11.0603 -0.66527 -7.49692 0.981122 -0.0389082 0.189434 59 71 71
-11.0559 -0.64488 -7.52904 0.94078 -0.210067 0.266092 61 73 73
-11.0635 -0.686843 -7.53004 0.7334 -0.250427 0.63199 57 71 75
-11.0624 -0.684485 -7.41107 0.883846 0.227713 0.408611 51 62 64
-11.0604 -0.641802 -7.41023 0.983284 -0.181745 0.0110265 33 42 43
-11.073 -0.668735 -7.43615 0.948009 0.219742 0.230201 60 71 72
-11.0749 -0.652217 -7.4634 0.962746 0.229177 0.143522 51 61 61
-11.063 -0.687466 -7.46552 0.99169 -0.0786866 0.101783 49 61 64
-11.072 -0.669647 -7.34897 0.837332 -0.313488 0.447884 48 57 59
-11.063 -0.658067 -7.38019 0.982699 -0.14039 0.120801 46 54 56
-11.062 -0.6269 -7.34761 0.878293 -0.226012 0.42133 22 30 35
-11.0744 -0.682225 -7.31972 0.904594 -0.147669 0.399879 51 59 62
-11.0714 -0.67848 -7.29431 0.978868 0.0643761 -0.194097 43 50 53
-11.0635 -0.640686 -7.32053 0.900237 -0.149427 0.408955 23 30 34
-11.08 -0.677383 -7.25471 0.797138 -0.578584 -0.172658 33 40 43
-11.0704 -0.662403 -7.26528 0.851242 -0.189147 0.489501 26 33 37
-11.0742 -0.656823 -7.28942 0.894918 -0.207106 0.395259 26 33 36
-11.0706 -0.677546 -7.29496 0.963787 0.027018 -0.265299 42 50 52
-11.0801 -0.667874 -7.18834 0.677564 0.529525 0.510402 22 29 33
-11.0676 -0.650817 -7.13217 0.873307 -0.134115 0.468347 25 32 38
-11.0723 -0.654743 -7.13028 0.821636 -0.136995 0.553305 24 32 37
-11.0984 -0.678441 -7.13387 0.989697 0.0975618 0.104788 23 30 34
-11.0688 -0.680138 -7.16239 0.927008 -0.0977252 0.362084 28 34 37
-11.0807 -0.639688 -7.15716 0.992617 0.040127 0.114458 28 36 43
-11.1133 -0.630668 -7.02935 0.985955 0.111723 0.124142 66 69 77
-11.0952 -0.666451 -7.03248 0.944194 -0.327549 -0.0347784 46 51 57
-11.1114 -0.666374 -7.02873 0.695597 -0.689017 -0.20347 46 48 54
-11.1205 -0.651173 -7.05596 0.99253 -0.0437947 0.113869 36 42 49
-11.1128 -0.627611 -7.08947 0.8049 -0.0908938 0.586408 49 56 64
-11.1095 -0.628969 -7.08949 0.802915 -0.105443 0.586694 47 54 62
-11.1068 -0.666781 -7.09067 0.901182 -0.411831 -0.135148 24 31 37
-11.1107 -0.667415 -6.97001 0.933871 0.19176 0.30185 71 74 79
-11.1181 -0.649611 -6.9976 0.98577 0.112706 0.124723 65 67 73
-11.1343 -0.637955 -6.96622 0.911631 0.40397 -0.0757422 90 91 98
-11.1248 -0.630812 -6.96783 0.932201 0.232806 0.277134 95 96 104
-11.1178 -0.650884 -6.93914 0.907426 0.413572 -0.0744044 120 124 130
-11.1149 -0.668325 -6.90914 0.980744 0.193845 -0.023765 170 176 181
-11.1367 -0.620772 -6.93747 0.566309 0.381918 -0.730365 146 150 157
-11.1234 -0.634494 -6.90933 0.7343 0.577591 -0.35664 168 175 181
-11.163 -0.657871 -6.81233 0.883031 0.0419451 -0.467436 174 177 182
-11.1681 -0.638084 -6.84399 0.681816 -0.658331 -0.318946 171 180 186
-11.1623 -0.621246 -6.81329 0.887093 0.00933611 -0.461497 173 176 183
-11.1419 -0.668506 -6.77902 0.80275 0.0973591 0.588314 131 121 121
-11.1458 -0.633848 -6.75288 0.905508 0.175993 0.386111 110 90 88
-11.1352 -0.607229 -6.78469 0.819678 0.143143 0.554651 134 126 128
-11.1119 -0.644929 -6.7351 0.932273 -0.030016 0.360509 104 78 69
-11.1384 -0.608005 -6.72778 0.984174 0.174757 0.029335 103 80 74
-11.1443 -0.628297 -6.69238 0.658766 -0.218517 -0.719915 98 71 58
-11.0826 -0.636466 -6.59911 0.730928 -0.679026 -0.0683141 165 146 128
-11.0991 -0.638928 -6.52076 0.93163 0.221115 -0.288399 103 94 85
-11.1121 -0.631268 -6.55053 0.962334 -0.0018124 -0.271862 155 141 125
-11.0977 -0.601971 -6.52501 0.974604 0.0155143 -0.223396 110 100 90
-11.1143 -0.595351 -6.54954 0.949015 -0.098152 -0.299561 153 138 122
-11.116 -0.6257 -6.48162 0.850908 0.0741511 0.520055 62 59 54
-11.0864 -0.612303 -6.41019 0.838025 -0.494796 0.229979 84 85 87
-11.1001 -0.624493 -6.39657 0.750995 -0.659896 -0.023302 84 83 85
-11.1066 -0.604853 -6.35864 0.925501 -0.23196 -0.299404 81 75 70
-11.1106 -0.620935 -6.35042 0.741622 -0.190684 -0.643146 83 77 71
-11.0743 -0.613917 -6.29725 0.983864 0.084075 -0.157932 169 151 139
-11.0506 -0.602667 -6.30512 0.964843 0.0731634 0.252439 168 151 138
-11.1821 -0.597057 -6.14658 0.989298 -0.0480512 -0.137771 188 185 183
-11.1805 -0.639216 -6.14898 0.966326 -0.00478515 0.257278 182 179 176
-11.1873 -0.618101 -6.18416 0.986162 -0.165288 -0.0128136 164 153 145
-11.2403 -0.592113 -6.04808 0.843674 -0.507118 0.176197 189 194 198
-11.1965 -0.63915 -6.06085 0.977158 0.14346 0.156783 181 184 188
-11.2205 -0.606684 -6.00105 0.961275 0.191946 0.197756 190 195 200
-11.212 -0.613063 -6.02215 0.927734 0.364452 0.0805258 191 195 200
-11.2293 -0.6066 -5.91384 0.936842 0.305103 -0.170995 188 190 195
-11.2099 -0.580547 -5.9748 0.740394 0.627124 0.241934 185 191 195
-11.2039 -0.640075 -5.94853 0.94653 0.201572 0.251891 171 170 172
-11.2355 -0.595959 -5.85369 0.912172 0.170251 -0.37277 187 188 192
-11.2793 -0.606034 -5.73835 0.827282 0.489604 -0.275486 186 187 190
-11.2636 -0.630167 -5.72462 0.984945 0.153492 0.0795223 171 168 170
-11.2411 -0.626974 -5.79149 0.95847 0.270409 0.0906345 181 176 177
-11.251 -0.625001 -5.7961 0.947029 0.287772 0.142558 187 183 184
-11.2668 -0.600986 -5.6603 0.956197 -0.289743 0.0416568 174 178 183
-11.2565 -0.570973 -5.71488 0.993758 0.0917681 0.0634343 182 187 192
-11.2649 -0.627955 -5.61469 0.945309 -0.171711 -0.277319 110 112 117
-11.2533 -0.577539 -5.61667 0.92394 -0.18854 -0.332849 93 101 108
-11.2657 -0.609635 -5.55837 0.979404 0.0867358 0.182332 95 96 100
-11.2794 -0.590503 -5.48478 0.971832 0.126626 0.198768 115 111 111
-11.3004 -0.596937 -5.35886 0.985774 0.135337 0.0996695 119 108 107
-11.2988 -0.563287 -5.42282 0.989684 0.0467538 -0.135424 127 122 119
-11.31 -0.59465 -5.27048 0.979437 0.141039 -0.14426 78 74 80
-11.3096 -0.568848 -5.30178 0.972031 0.22447 0.0690562 81 73 74
-11.3028 -0.621072 -5.32826 0.989688 0.0914827 0.110223 119 109 111
-11.3004 -0.566569 -5.2266 0.998797 0.0439138 0.0218109 63 68 83
-11.3161 -0.592505 -5.15114 0.96142 0.0618627 0.268038 70 83 102
-11.3352 -0.589667 -5.0108 0.980806 0.0487042 0.188808 160 172 175
-11.3557 -0.581587 -4.92784 0.971312 0.0379788 0.234758 172 182 181
-11.3564 -0.580848 -4.92038 0.971434 0.0541432 0.231051 173 182 181
-11.3742 -0.554466 -4.84765 0.974911 0.0370026 -0.219499 166 168 165
-11.365 -0.586127 -4.78874 0.983134 0.139357 0.118439 109 100 95
-11.3806 -0.544038 -4.71269 0.979519 0.141812 0.142936 151 149 146
-11.4021 -0.582039 -4.52746 0.982824 -0.113059 0.145861 55 69 69
-11.3886 -0.54526 -4.59243 0.98601 -0.0699257 0.151311 145 158 158
-11.3895 -0.546195 -4.59164 0.982821 0.000799567 0.184562 143 156 156
-11.4367 -0.593351 -4.39982 0.977272 -0.159266 0.139909 61 72 72
-11.4404 -0.520348 -4.31099 0.990712 -0.025254 0.133613 155 163 160
-11.4532 -0.563262 -4.2319 0.985231 0.103566 0.13636 146 154 152
-11.4662 -0.522024 -4.16017 0.963317 -0.197695 -0.181488 166 172 170
-11.4512 -0.553584 -4.1198 0.858376 0.0729616 -0.507807 105 102 103
-11.4611 -0.527323 -4.02193 0.990275 0.0934659 0.10305 73 59 60
-11.4587 -0.546006 -3.95374 0.995375 0.0717541 0.0638768 48 33 32
-11.4876 -0.537231 -3.87237 0.996178 -0.0812161 0.0321541 44 33 31
-11.5307 -0.521127 -3.68659 0.966169 0.238818 0.0973795 51 42 42
-11.5475 -0.538641 -3.63607 0.983188 0.161001 0.0861444 52 42 42
-11.5706 -0.51275 -3.52733 0.992507 0.0972594 0.0739579 57 46 45
-11.5594 -0.541322 -3.45819 0.977273 0.200888 0.0676934 81 72 72
-11.5719 -0.528801 -3.32333 0.998676 0.0384953 0.0341097 133 132 130
-11.5956 -0.532086 -3.10739 0.999283 -0.0171358 0.0337482 135 142 139
-11.5889 -0.506324 -3.09049 0.98584 -0.167561 -0.00657937 73 79 75
-11.6083 -0.500677 -3.06655 0.974511 -0.223618 -0.0179815 60 66 61
-11.6381 -0.52889 -2.79737 0.81985 -0.297905 -0.488976 92 91 83
-11.5758 -0.49944 -2.76795 0.687798 -0.130539 -0.714068 95 86 70
-11.0312 -0.627145 -8.76713 0.955034 0.175909 -0.238676 132 155 167
-10.9763 -0.671259 -8.70326 0.758685 0.0728373 -0.647373 113 138 153
-10.9764 -0.673323 -8.70277 0.779162 0.0620336 -0.623745 114 139 154
-10.9411 -0.606868 -8.58659 0.965398 0.260375 -0.0145408 157 169 179
-10.9737 -0.653854 -8.53619 0.865403 0.0550389 -0.498045 162 168 175
-10.9711 -0.653617 -8.424 0.971185 0.0101865 0.238111 110 96 90
-10.9803 -0.65336 -8.36914 0.910864 0.0434383 0.410415 174 166 167
-10.9893 -0.621169 -8.33515 0.896739 0.178011 0.40518 146 151 155
-11 -0.633508 -8.3004 0.95806 -0.259519 0.121538 151 161 164
-11.0078 -0.613213 -8.27221 0.976004 -0.187666 0.11044 114 126 129
-11.0231 -0.653804 -8.27339 0.871149 -0.417104 0.259081 160 166 168
-11.0031 -0.629724 -8.23846 0.969786 -0.12414 0.210009 151 162 164
-11.0166 -0.610642 -8.20597 0.998229 0.0282462 -0.0523529 112 123 125
-11.0147 -0.650254 -8.20578 0.998604 -0.0478226 -0.0224489 164 169 171
-11.0199 -0.630492 -8.17312 0.975967 -0.204342 -0.0757208 154 165 165
-11.0053 -0.649113 -8.13661 0.786207 0.530918 -0.316235 161 170 172
-11.0624 -0.627186 -7.49793 0.95072 0.232071 0.205607 34 43 44
-11.0603 -0.625196 -7.44049 0.946593 0.273579 0.170635 23 33 34
-11.066 -0.609703 -7.46713 0.935725 0.348706 0.0531295 19 28 30
-11.0569 -0.60746 -7.40968 0.98709 -0.0648545 0.146448 20 30 34
-11.067 -0.61623 -7.3759 0.900395 0.130069 0.415176 22 31 36
-11.0909 -0.606474 -7.12373 0.809385 -0.147516 0.568449 57 64 73
-11.0957 -0.610212 -7.1215 0.804035 -0.167498 0.570502 56 63 71
-11.1174 -0.61166 -7.05951 0.987833 0.149156 -0.044019 70 73 82
-11.118 -0.614232 -7.05787 0.992558 0.0988368 -0.071133 68 72 81
-11.1219 -0.57864 -7.05863 0.974838 0.163033 -0.152024 106 108 119
-11.1049 -0.571945 -7.0652 0.911793 -0.102526 -0.397646 109 112 122
-11.1029 -0.593187 -7.0923 0.693428 0.596988 -0.403439 72 78 88
-11.1207 -0.59516 -7.08866 0.879301 0.202851 -0.430907 73 79 89
-11.1454 -0.605964 -6.9671 0.953643 -0.163582 0.252597 153 155 161
-11.1135 -0.612015 -7.00049 0.987095 0.133507 0.0884289 100 101 108
-11.1139 -0.608521 -7.00186 0.986897 0.16109 0.00917131 106 106 113
-11.1338 -0.587048 -7.00199 0.953826 -0.153478 0.258185 159 160 167
-11.1048 -0.592439 -7.03339 0.989055 0.0447137 -0.140609 110 112 121
-11.1312 -0.593064 -6.96882 0.98825 0.0770003 -0.132032 167 169 176
-11.1583 -0.575919 -6.97488 0.832584 0.551966 0.0462325 169 173 179
-11.1078 -0.589731 -7.03417 0.987868 0.147472 -0.048663 117 118 127
-11.1651 -0.57055 -6.95832 0.923261 -0.0884693 0.373847 169 177 183
-11.1521 -0.562959 -6.96252 0.95481 -0.0642658 0.290185 172 179 185
-11.1597 -0.553525 -6.99174 0.765709 0.00715439 0.643148 172 178 185
-11.129 -0.560083 -7.02893 0.854826 -0.153963 0.495548 154 156 164
-11.1346 -0.565169 -7.02476 0.884497 -0.242871 0.398345 155 157 165
-11.1668 -0.587528 -6.93522 0.564602 0.382788 -0.73123 170 176 182
-11.1703 -0.565804 -6.91698 0.756548 0.037488 0.652863 172 182 190
-11.1044 -0.573834 -6.82781 0.803293 0.160168 0.573644 172 177 183
-11.1788 -0.563089 -6.83005 0.910053 0.0237212 0.413812 175 186 194
-11.1493 -0.587951 -6.755 0.956936 0.119043 0.264767 111 96 96
-11.1361 -0.551926 -6.78816 0.952361 -0.119137 0.280739 150 149 155
-11.1476 -0.567382 -6.78753 0.940756 0.17307 0.291592 146 145 150
-11.1503 -0.545944 -6.7567 0.938486 0.19595 0.284335 150 144 147
-11.1495 -0.546497 -6.75841 0.97583 0.157118 -0.151884 149 143 146
-11.1448 -0.564896 -6.72737 0.986605 0.0726935 0.146032 110 92 90
-11.1472 -0.541264 -6.69562 0.494015 0.163569 -0.853929 119 102 96
-11.1228 -0.579232 -6.70521 0.940986 0.0326933 -0.336862 97 73 65
-11.106 -0.540749 -6.6744 0.340519 0.0428776 -0.93926 114 93 80
-11.113 -0.585949 -6.55236 0.952719 -0.081169 -0.292809 153 138 122
-11.0774 -0.564398 -6.59879 0.828962 -0.45685 0.322662 159 140 123
-11.0931 -0.544026 -6.56127 0.956483 -0.0213339 0.291008 152 136 120
-11.1001 -0.565971 -6.52417 0.957479 -0.0378367 0.286012 108 99 88
-11.0994 -0.58587 -6.49028 0.988215 -0.0426512 -0.147009 61 58 53
-11.1036 -0.53993 -6.48926 0.999071 0.0430164 0.00276715 60 57 51
-11.1041 -0.540026 -6.48782 0.998636 0.0141825 0.0502551 60 57 51
-11.0966 -0.540763 -6.39267 0.757959 -0.650195 0.0523877 82 81 80
-11.0987 -0.578952 -6.39912 0.688824 -0.711013 -0.141355 83 83 84
-11.1094 -0.571095 -6.45033 0.997131 -0.0553546 0.0516256 71 72 72
-11.0981 -0.51891 -6.45847 0.988072 -0.142369 -0.0586962 68 68 68
-11.1048 -0.566886 -6.3529 0.881074 -0.133987 -0.453603 83 75 69
-11.1031 -0.529982 -6.3508 0.784032 -0.0163014 -0.620507 88 80 73
-11.0768 -0.547666 -6.32886 0.867048 -0.124015 -0.482543 150 134 122
-11.0492 -0.528912 -6.30537 0.92802 -0.0672182 -0.366416 168 151 137
-11.06 -0.567623 -6.3023 0.999203 0.0387736 -0.00944677 167 151 137
-11.2044 -0.578091 -6.17479 0.966021 -0.119216 -0.229329 162 152 144
-11.2559 -0.520382 -6.1447 0.805151 -0.48394 -0.342832 159 153 148
-11.2004 -0.532504 -6.15986 0.972021 0.106754 0.209232 169 162 157
-11.2539 -0.568523 -6.08219 0.876076 -0.47817 -0.0620009 186 188 188
-11.2161 -0.517566 -6.08934 0.911969 0.0253006 -0.409478 155 158 157
-11.2225 -0.572718 -6.00013 0.889029 -0.408028 -0.207701 183 191 195
-11.2369 -0.548547 -6.03235 0.863861 -0.477419 -0.160671 181 189 192
-11.244 -0.564819 -5.9135 0.930408 0.317812 -0.182583 182 191 193
-11.2489 -0.520021 -5.91066 0.892412 -0.381568 -0.240845 132 139 140
-11.247 -0.535213 -5.96882 0.887963 -0.397556 -0.231238 172 182 182
-11.2651 -0.547297 -5.85451 0.983733 0.0190732 -0.178622 179 186 188
-11.2609 -0.545583 -5.75278 0.997122 0.00698894 0.0754899 181 187 192
-11.2352 -0.569308 -5.81783 0.841299 0.534495 0.0808168 184 188 192
-11.2516 -0.518238 -5.82777 0.999359 0.00371054 -0.0356034 122 127 129
-11.2588 -0.515272 -5.7067 0.996063 -0.0286486 0.083894 182 191 197
-11.2644 -0.513657 -5.60463 0.995817 -0.0628996 0.0662725 73 86 96
-11.2624 -0.544619 -5.65726 0.989694 -0.143111 0.0049012 149 160 168
-11.2711 -0.55698 -5.5479 0.936103 0.249971 0.247439 91 96 102
-11.288 -0.532611 -5.48501 0.994706 0.0845269 -0.0584389 153 157 158
-11.3053 -0.53778 -5.36297 0.986297 0.160283 -0.0390799 106 98 94
-11.2985 -0.508251 -5.4243 0.991597 0.0252359 -0.126881 143 140 138
-11.3013 -0.510062 -5.31599 0.966482 -0.122381 -0.225689 96 90 91
-11.3083 -0.536056 -5.27207 0.984601 0.150801 0.0884341 85 83 89
-11.3248 -0.504187 -5.14054 0.958092 -0.282805 -0.0456097 77 91 106
-11.3223 -0.543614 -5.08434 0.981611 -0.0106532 0.190594 118 132 142
-11.337 -0.493589 -5.0057 0.971916 -0.0319176 0.233153 160 170 172
-11.3481 -0.513846 -4.94676 0.967531 0.0825976 0.238874 175 184 184
-11.3734 -0.491628 -4.85107 0.972025 -0.0950113 -0.214801 170 172 172
-11.3694 -0.524138 -4.78864 0.981324 0.0964232 0.16645 109 103 98
-11.3835 -0.473624 -4.59041 0.994877 0.00346798 0.101034 154 170 169
-11.3992 -0.509996 -4.52257 0.987553 -0.0963702 0.124309 146 160 162
-11.4195 -0.510492 -4.43956 0.987239 0.00306001 0.159215 138 147 149
-11.4274 -0.475932 -4.37176 0.997666 -0.0319999 0.0603168 62 72 70
-11.4497 -0.503997 -4.22105 0.989071 0.0491658 0.139002 162 171 168
-11.4598 -0.459288 -4.15136 0.763514 -0.199727 -0.61413 160 163 163
-11.4462 -0.491467 -4.10915 0.972898 -0.011095 -0.230969 87 81 82
-11.4319 -0.441885 -4.10743 0.910053 -0.109369 -0.399803 72 65 67
-11.428 -0.460284 -4.06591 0.976942 -0.0241644 -0.212131 57 45 46
-11.3739 -0.484491 -4.07054 0.778857 0.58245 -0.232667 53 40 39
-11.47 -0.437289 -3.94157 0.891445 0.287098 -0.350573 52 41 40
-11.4766 -0.497159 -3.90892 0.969982 0.230278 -0.078149 49 39 37
-11.4744 -0.46439 -3.85313 0.953739 0.2856 0.0938836 47 35 33
-11.4942 -0.497076 -3.7771 0.811716 0.583357 0.0284772 48 37 35
-11.5538 -0.459514 -3.63637 0.974068 -0.040548 -0.222593 59 47 48
-11.5869 -0.47214 -3.41831 0.989173 0.081668 -0.121934 76 68 68
-11.5643 -0.427545 -3.37418 0.986331 0.14097 -0.0853201 97 93 90
-11.5729 -0.473326 -3.26576 0.979676 0.195319 0.0456637 77 79 75
-11.563 -0.445686 -3.22466 0.991247 -0.0841475 -0.101732 71 74 70
-11.6357 -0.413819 -2.99608 0.99917 -0.0389326 0.0119665 58 62 58
-11.634 -0.466531 -2.90442 0.990178 -0.103796 -0.0936682 130 133 127
-11.6206 -0.429874 -2.82665 0.833712 0.100863 -0.542911 94 93 83
-11.6162 -0.45477 -2.78885 0.823806 -0.294748 -0.484218 68 64 53
-11.5728 -0.404183 -2.75428 0.868419 -0.184049 -0.460407 94 84 66
-10.9795 -0.551343 -8.70272 0.952238 -0.239016 -0.190038 155 174 182
-10.9406 -0.574844 -8.64074 0.821941 0.407875 -0.397556 155 172 183
-10.9782 -0.57456 -8.53613 0.863995 0.0677317 -0.498923 161 166 175
-10.9983 -0.594068 -8.30103 0.958384 -0.119689 0.259181 45 55 59
-10.9902 -0.554735 -8.30081 0.931223 -0.115823 0.345555 20 27 34
-10.9763 -0.575069 -8.33238 0.919544 0.0157091 0.392673 88 94 99
-10.9989 -0.533728 -8.26886 0.906469 0.0990722 0.410486 29 36 41
-10.9955 -0.571381 -8.26915 0.945978 -0.00699058 0.324155 19 28 31
-11.0067 -0.553671 -8.23863 0.909574 0.119917 0.397862 35 44 48
-11.0051 -0.591871 -8.2388 0.968335 -0.109591 0.224317 44 54 56
-11.007 -0.572955 -8.20789 0.999004 -0.0327953 0.0302545 48 57 61
-11.0163 -0.591598 -8.17294 0.980731 -0.170176 -0.0959482 56 66 68
-11.1317 -0.546974 -7.05736 0.9559 0.274663 -0.103994 167 171 181
-11.1173 -0.540111 -7.06037 0.941799 -0.312541 0.123825 172 176 186
-11.1053 -0.509129 -7.03379 0.964615 -0.0814193 0.250775 170 180 188
-11.1205 -0.527551 -7.03277 0.890972 -0.161072 0.424528 174 182 190
-11.1279 -0.522057 -7.02144 0.843925 -0.0182157 0.536151 172 180 188
-11.0854 -0.47787 -6.9968 0.697949 0.360143 0.619003 166 178 184
-11.1913 -0.532981 -6.94835 0.766146 -0.0294638 0.641991 175 183 190
-11.0967 -0.480904 -6.9336 0.855626 -0.495685 -0.148996 167 179 184
-11.1175 -0.489631 -6.85088 0.797911 0.282506 0.532473 166 178 186
-11.1232 -0.506975 -6.79125 0.967774 -0.238347 -0.0812716 166 172 178
-11.1346 -0.525152 -6.82018 0.833634 0.151466 0.531142 173 181 189
-11.1426 -0.52857 -6.75227 0.951239 -0.112504 0.287206 164 162 165
-11.1298 -0.489248 -6.82096 0.73684 0.392864 0.550203 166 177 184
-11.1424 -0.485356 -6.75015 0.987472 0.00602952 -0.157677 160 165 170
-11.1547 -0.525818 -6.72648 0.933363 0.267554 -0.239266 162 155 157
-11.1426 -0.503649 -6.71908 0.942567 0.152602 -0.297119 143 139 141
-11.1548 -0.507653 -6.6965 0.482789 0.105823 -0.86932 112 103 101
-11.1427 -0.486432 -6.68806 0.50271 0.104193 -0.858153 80 69 66
-11.1118 -0.507086 -6.67565 0.363595 0.0298137 -0.93108 97 79 68
-11.1357 -0.468048 -6.68223 0.466983 0.0445018 -0.883146 71 58 54
-11.1238 -0.504693 -6.54763 0.989849 -0.0627235 0.127532 149 133 118
-11.0955 -0.479223 -6.59293 0.64064 -0.747345 -0.176223 156 138 120
-11.1186 -0.462272 -6.54876 0.973774 0.0316893 -0.225301 151 136 120
-11.1034 -0.520322 -6.52315 0.996645 0.0731403 0.0367314 107 98 85
-11.1023 -0.500167 -6.49115 0.999088 0.0251832 0.0344775 60 56 49
-11.1042 -0.519756 -6.52152 0.99626 0.0797577 0.0332372 104 95 83
-11.1043 -0.478553 -6.52175 0.987483 -0.0961666 -0.125014 102 92 81
-11.1005 -0.460043 -6.49247 0.999828 -0.00190684 0.0184245 60 54 49
-11.0935 -0.478163 -6.46192 0.997616 0.0675913 -0.0139031 68 68 66
-11.0898 -0.516126 -6.46071 0.964734 -0.193941 -0.177974 69 69 69
-11.0662 -0.49493 -6.434 0.819767 0.167144 -0.547763 81 83 84
-11.0674 -0.493458 -6.43628 0.933987 0.0842218 -0.34724 80 83 84
-11.0647 -0.452791 -6.44302 0.899582 0.263777 -0.3481 77 80 79
-11.1035 -0.492899 -6.35018 0.774285 0.0252965 -0.632331 88 79 72
-11.1242 -0.475074 -6.37502 0.523777 -0.74842 -0.406848 80 78 75
-11.0873 -0.452423 -6.35925 0.971659 -0.0609631 0.22839 86 78 70
-11.1136 -0.451474 -6.27255 0.873646 0.0765825 0.480497 163 149 133
-11.0429 -0.491063 -6.30735 0.969483 0.00624132 -0.24508 166 150 136
-11.0445 -0.454241 -6.30661 0.930514 -0.125678 -0.344018 164 149 135
-11.1738 -0.466322 -6.19652 0.882022 0.123379 0.454768 157 148 137
-11.2189 -0.495892 -6.12825 0.927303 0.012331 -0.374108 175 172 169
-11.2098 -0.454743 -6.13444 0.994482 0.0903919 0.0532508 177 174 169
-11.2097 -0.456465 -6.05329 0.980699 -0.0641172 0.184711 44 50 53
-11.2346 -0.505488 -6.01979 0.910408 -0.403397 0.0918045 76 83 83
-11.2118 -0.459534 -6.02268 0.993171 0.035471 0.111142 132 137 138
-11.2181 -0.486882 -5.97506 0.981039 0.142495 0.131368 65 71 72
-11.2474 -0.497991 -5.86807 0.899135 -0.396444 -0.185442 62 66 68
-11.2347 -0.4739 -5.9064 0.913861 -0.374523 -0.156816 66 70 74
-11.2338 -0.440334 -5.88449 0.975637 -0.13345 0.174136 160 164 168
-11.2492 -0.467574 -5.8296 0.988626 0.0123278 -0.149893 153 157 159
-11.248 -0.48528 -5.76137 0.99638 -0.00451332 0.084891 128 135 139
-11.2541 -0.482698 -5.66011 0.991271 -0.0770256 0.106997 146 158 167
-11.2585 -0.45145 -5.6046 0.990561 -0.0954561 0.0983677 91 101 110
-11.2801 -0.458712 -5.47509 0.960854 -0.26603 -0.0773829 102 100 101
-11.267 -0.427418 -5.53996 0.980798 0.189139 0.0475555 126 131 134
-11.2821 -0.489582 -5.5178 0.967566 -0.241481 -0.0741811 129 134 140
-11.2903 -0.47996 -5.38138 0.983872 0.0966589 -0.150507 118 109 107
-11.2768 -0.432898 -5.42943 0.978924 -0.178011 -0.1001 110 104 104
-11.321 -0.476058 -5.23907 0.972649 -0.207316 0.104753 58 61 70
-11.3083 -0.439819 -5.30409 0.974891 -0.113697 0.19147 96 94 99
-11.3178 -0.445089 -5.16637 0.962439 -0.250214 -0.105373 113 120 131
-11.3099 -0.425582 -5.11741 0.981032 -0.171588 -0.0901856 156 166 171
-11.3072 -0.425299 -5.11891 0.975828 -0.204251 -0.0777248 156 166 172
-11.3145 -0.460613 -5.05743 0.947825 -0.300436 -0.106608 160 169 173
-11.3488 -0.44253 -4.93156 0.972393 0.0187872 0.232591 173 182 183
-11.3307 -0.415271 -4.98933 0.971502 -0.000233889 0.237031 165 175 175
-11.3682 -0.407532 -4.85243 0.997592 0.0633289 -0.0282694 158 161 161
-11.3722 -0.463631 -4.78208 0.975009 0.05771 0.214538 107 102 99
-11.3869 -0.456954 -4.63142 0.989703 0.0919926 0.109658 102 109 107
-11.4141 -0.416686 -4.43487 0.993918 0.0812351 0.0743557 151 164 164
-11.4241 -0.439865 -4.32173 0.996541 0.0720881 0.0413541 145 156 154
-11.4322 -0.400788 -4.26129 0.98939 0.072591 0.125852 147 160 160
-11.4414 -0.420313 -4.23737 0.989066 0.0529398 0.137648 162 171 170
-11.4742 -0.381724 -4.18144 0.381923 -0.119701 -0.91641 167 177 178
-11.4529 -0.409263 -4.14296 0.874006 -0.0574279 -0.482509 137 138 140
-11.4485 -0.401006 -4.03725 0.992796 0.0428266 0.111901 77 68 69
-11.4442 -0.3867 -4.08284 0.995628 0.0913479 -0.0194832 61 56 58
-11.4525 -0.402638 -3.90675 0.897639 0.435114 0.0701397 56 43 43
-11.4823 -0.410133 -3.81612 0.97871 0.201122 0.0409488 55 40 40
-11.4866 -0.367883 -3.7522 0.939147 0.336097 0.0710089 72 56 56
-11.4759 -0.396897 -3.68204 0.990607 0.114409 0.0748876 57 42 42
-11.5448 -0.387296 -3.64515 0.808613 -0.329128 -0.487668 65 51 50
-11.5052 -0.419854 -3.62309 0.988897 -0.136602 0.0585005 55 43 43
-11.5677 -0.36005 -3.48245 0.9978 -0.00631559 0.0660008 35 27 27
-11.5789 -0.361033 -3.46634 0.999244 -0.0362434 0.0140674 35 27 27
-11.5828 -0.367304 -3.28302 0.990252 0.130983 0.0473788 110 110 107
-11.5907 -0.40565 -3.08193 0.95376 -0.157533 -0.255978 55 59 54
-11.6053 -0.399762 -3.03397 0.962615 -0.269553 -0.0267157 65 69 64
-11.5972 -0.380649 -2.77576 0.832057 -0.293781 -0.470504 71 64 50
-11.5952 -0.37353 -2.80492 0.491027 -0.0280035 -0.870694 63 56 44
-11.5891 -0.319372 -2.74882 0.946097 0.14678 -0.288715 93 83 67
-10.9284 -0.495451 -8.63865 0.900556 0.266018 -0.343851 152 166 173
-10.9476 -0.529637 -8.58653 0.999006 0.0439166 -0.00759514 157 170 181
-10.9567 -0.492559 -8.5328 0.910436 0.0522223 0.410341 159 164 174
-10.9756 -0.514629 -8.30015 0.953466 0.0906335 0.287555 22 29 34
-11.0016 -0.495743 -8.26878 0.954508 -0.0142816 0.297843 49 59 62
-11.0004 -0.514669 -8.23807 0.950766 -0.0236725 0.309005 112 122 124
-11.1026 -0.414333 -6.9934 0.946375 0.107299 0.304731 72 83 85
-11.0927 -0.44627 -6.99534 0.98428 0.175263 0.0218048 159 172 175
-11.1139 -0.449953 -6.92915 0.988165 0.146656 -0.0449767 161 174 177
-11.0763 -0.46034 -6.97098 0.972786 0.0893075 -0.213801 165 178 182
-11.1216 -0.434195 -6.95679 0.988156 0.144821 -0.0507343 134 145 148
-11.1296 -0.41845 -6.92527 0.973444 0.208565 0.0943763 65 77 79
-11.1055 -0.450422 -6.86604 0.757441 0.630589 0.169237 159 172 177
-11.1315 -0.418214 -6.86632 0.962039 0.272573 -0.0135695 59 73 74
-11.1281 -0.435068 -6.89583 0.963119 0.267148 -0.0321641 134 146 149
-11.1651 -0.471101 -6.77303 0.421765 -0.548413 -0.722051 162 171 177
-11.1195 -0.420565 -6.80677 0.71527 0.262482 -0.647682 149 160 164
-11.1141 -0.415645 -6.81314 0.582535 0.408122 -0.702915 141 152 155
-11.174 -0.455795 -6.73717 0.933856 0.042893 0.355068 157 165 171
-11.1051 -0.45617 -6.6727 0.323358 -0.0801981 -0.942872 84 67 57
-11.1161 -0.427975 -6.66977 0.448536 0.0547278 -0.892088 85 67 58
-11.1043 -0.409469 -6.64918 0.836225 0.100366 -0.539123 126 106 89
-11.115 -0.406991 -6.58372 0.548887 -0.764757 -0.337447 146 127 108
-11.1185 -0.426469 -6.54929 0.969696 0.0329267 -0.242084 148 132 116
-11.1022 -0.441285 -6.52105 0.698648 -0.026046 -0.714991 98 88 78
-11.1015 -0.403513 -6.52073 0.983092 -0.118688 -0.13944 95 85 74
-11.0911 -0.419115 -6.49673 0.986152 -0.0422584 -0.160371 58 54 48
-11.0808 -0.423745 -6.4968 0.749272 -0.0248752 -0.661794 59 55 50
-11.0637 -0.405115 -6.43559 0.93374 0.26112 0.244839 39 41 41
-11.0845 -0.437185 -6.46639 0.802644 -0.461084 -0.378371 68 67 64
-11.0642 -0.399852 -6.46997 0.946398 -0.0680996 -0.315741 65 65 63
-11.0939 -0.432403 -6.39096 0.610515 -0.763271 -0.211399 75 74 71
-11.0875 -0.404914 -6.35757 0.930923 0.0010249 0.365214 87 79 71
-11.0945 -0.427627 -6.31904 0.9841 -0.15786 0.0814038 150 135 122
-11.1959 -0.42881 -6.18281 0.890136 -0.100913 0.44438 155 146 135
-11.2182 -0.386938 -6.17163 0.635309 -0.759856 -0.137843 159 151 138
-11.2093 -0.408215 -6.13742 0.997396 0.0633798 0.0344096 175 172 166
-11.2119 -0.431688 -6.096 0.937961 0.222902 -0.265603 83 84 84
-11.2082 -0.410166 -6.06214 0.987231 -0.0682539 0.143934 30 35 37
-11.2119 -0.407927 -6.02484 0.986053 0.0343101 0.162854 48 55 58
-11.2232 -0.434907 -5.97675 0.99569 -0.0174371 0.0910864 165 172 176
-11.2187 -0.383069 -5.97922 0.99604 -8.34167e-005 0.0889016 28 37 40
-11.2253 -0.408946 -5.9335 0.980546 0.119509 0.155715 136 143 146
-11.2373 -0.406883 -5.81451 0.997695 -0.0136531 -0.0664686 150 156 158
-11.2383 -0.427215 -5.76832 0.981424 -0.0388072 -0.187884 116 123 127
-11.2375 -0.380659 -5.7676 0.977268 -0.00650835 -0.211909 120 128 131
-11.2469 -0.407087 -5.71555 0.983699 0.00772241 0.179655 183 190 196
-11.2504 -0.399049 -5.69345 0.98491 -0.134638 0.108745 175 187 197
-11.2512 -0.365574 -5.70881 0.994329 -0.0322947 0.101322 182 190 196
-11.2397 -0.395294 -5.61442 0.990427 -0.127397 -0.0531504 162 169 175
-11.2689 -0.398752 -5.49208 0.989608 0.143713 -0.00482535 159 161 162
-11.2562 -0.368107 -5.55619 0.9873 0.146532 0.0613791 169 176 178
-11.2846 -0.368372 -5.43205 0.981117 0.164307 0.102047 171 174 176
-11.2892 -0.400985 -5.37387 0.996981 0.0517311 0.0578999 156 155 158
-11.2808 -0.356938 -5.32093 0.950634 -0.240349 0.196283 165 173 175
-11.3132 -0.405405 -5.20388 0.982377 0.061802 0.1764 163 169 176
-11.2439 -0.345239 -5.28175 0.970898 -0.060732 -0.231664 165 174 175
-11.2433 -0.353539 -5.17217 0.958427 -0.22276 0.178314 157 169 169
-11.2642 -0.356131 -5.14795 0.955576 -0.249039 0.157651 157 168 169
-11.2896 -0.395108 -5.05768 0.930146 -0.350205 -0.110387 161 172 172
-11.2809 -0.359628 -5.12052 0.90842 -0.396314 0.13307 156 168 169
-11.3637 -0.368896 -4.92323 0.994768 0.0925075 0.0433445 164 174 175
-11.3834 -0.381765 -4.87894 0.979008 0.110079 -0.171538 165 173 173
-11.3788 -0.336971 -4.84686 0.985679 0.106771 -0.130524 152 155 156
-11.3742 -0.369718 -4.78354 0.978716 0.0495189 0.199157 110 105 103
-11.3935 -0.363207 -4.63472 0.988068 0.0998621 0.117259 44 50 48
-11.4005 -0.346161 -4.55489 0.987484 0.104905 0.117776 120 128 126
-11.4167 -0.382422 -4.47719 0.981273 0.101865 0.163481 110 121 120
-11.4155 -0.348366 -4.43247 0.992743 0.0879788 0.081979 47 56 57
-11.4226 -0.317874 -4.38036 0.989631 0.115158 0.0858424 99 109 110
-11.4211 -0.360137 -4.33414 0.984541 0.0902965 0.150083 141 152 153
-11.4287 -0.320253 -4.26736 0.985083 0.0893782 0.147049 148 161 162
-11.4453 -0.356169 -4.14843 0.760651 -0.129595 -0.636093 120 124 126
-11.4522 -0.32435 -4.20356 0.980096 0.178535 0.0868145 164 175 177
-11.4518 -0.315257 -4.08151 0.992604 0.105045 0.0608568 94 99 100
-11.4412 -0.30657 -4.14251 0.976745 -0.160988 -0.141606 125 134 135
-11.4689 -0.365466 -3.98929 0.988331 0.102941 0.112273 86 79 79
-11.4927 -0.322076 -3.90526 0.898493 0.425514 -0.107925 86 83 83
-11.498 -0.322062 -3.83151 0.961183 0.269834 -0.0575961 87 77 78
-11.515 -0.305375 -3.64161 0.992149 0.104955 0.0680066 49 42 45
-11.5433 -0.319608 -3.4454 0.965284 0.256768 0.0479308 53 50 50
-11.66 -0.306005 -2.93229 0.928393 0.3716 0.000228375 119 123 117
-11.6527 -0.331096 -2.96101 0.989975 -0.141205 0.00336114 124 128 123
-11.5976 -0.2545 -2.81725 0.579607 -0.265966 -0.770271 56 53 41
-11.5817 -0.306161 -2.75904 0.84388 -0.27846 -0.458614 94 85 68
-10.9494 -0.427634 -8.6412 0.851638 -0.00222921 -0.524126 44 54 59
-10.9446 -0.459251 -8.58617 0.972575 0.14625 0.180856 156 168 177
-10.954 -0.466359 -8.58701 0.956238 -0.105573 0.272879 155 166 175
-11.1298 -0.401669 -6.95561 0.99442 0.0968727 -0.0417754 48 59 61
-11.1313 -0.36804 -6.95623 0.992329 -0.0731527 -0.0996571 170 183 185
-11.1255 -0.351105 -6.92754 0.975393 0.203294 0.0853269 159 172 174
-11.1364 -0.38766 -6.92105 0.989309 0.0971962 0.108718 103 116 118
-11.1334 -0.401258 -6.89737 0.979284 0.166126 -0.115779 51 64 66
-11.13 -0.383483 -6.87048 0.966501 0.170352 0.19198 99 112 116
-11.1223 -0.368315 -6.89841 0.963393 0.266648 0.0278024 170 183 187
-11.1339 -0.401225 -6.83722 0.962592 0.270949 -0.00164622 48 60 61
-11.1442 -0.36781 -6.83685 0.991288 -0.112171 0.0690388 66 77 81
-11.1196 -0.381743 -6.81471 0.575011 0.314958 -0.755092 133 143 146
-11.1573 -0.350975 -6.79985 0.938727 -0.166593 -0.301726 145 155 159
-11.1344 -0.35478 -6.77977 0.726918 0.207316 -0.654683 169 179 183
-11.1332 -0.393656 -6.77196 0.987045 0.117976 0.108741 164 173 178
-11.1536 -0.370361 -6.76993 0.846774 -0.476326 0.236828 167 177 182
-11.2115 -0.345025 -6.72489 0.817288 -0.0274346 -0.575576 160 169 172
-11.2041 -0.382169 -6.72386 0.848127 -0.276647 -0.451825 155 165 170
-11.1657 -0.365598 -6.70028 0.593029 -0.150323 -0.791025 117 112 113
-11.1425 -0.396033 -6.7122 0.396418 -0.0125467 -0.917984 122 122 123
-11.1394 -0.353121 -6.67451 0.920052 -0.203174 -0.335 101 85 75
-11.1378 -0.39306 -6.67901 0.952846 -0.00489864 -0.303415 79 64 57
-11.1361 -0.38654 -6.67859 0.922807 -0.183996 -0.338485 83 68 61
-11.0787 -0.367975 -6.66268 0.688343 0.0691404 -0.722083 136 115 97
-11.0825 -0.364713 -6.6644 0.665968 -0.0598561 -0.743575 133 112 95
-11.1253 -0.368958 -6.57624 0.548857 -0.777634 -0.306662 145 127 106
-11.1265 -0.333002 -6.5742 0.508251 -0.777073 -0.371266 145 127 106
-11.132 -0.33343 -6.571 0.60067 -0.759555 -0.249545 145 127 106
-11.1114 -0.385785 -6.5494 0.987213 -0.0857601 -0.134373 142 127 109
-11.1007 -0.367105 -6.51908 0.978052 -0.100715 -0.182405 86 77 66
-11.1173 -0.35038 -6.5446 0.978477 -0.0794611 -0.190445 138 124 104
-11.1165 -0.350495 -6.54582 0.985784 -0.069865 -0.152804 139 124 105
-11.1007 -0.331408 -6.51742 0.953901 -0.254789 -0.158603 78 70 57
-11.0532 -0.3476 -6.44546 0.829587 0.0594656 -0.555203 74 77 77
-11.0848 -0.383815 -6.49336 0.939481 -0.0472558 -0.339325 58 56 50
-11.0899 -0.349066 -6.48954 0.979698 -0.0572065 -0.192145 56 56 49
-11.0576 -0.364194 -6.47546 0.880773 0.0993783 -0.462993 66 67 65
-11.0684 -0.331172 -6.47156 0.998414 -0.0417193 -0.0377959 63 66 64
-11.0671 -0.377247 -6.40324 0.901621 0.117455 0.416274 77 76 73
-11.074 -0.322463 -6.40342 0.896498 0.125546 0.424887 76 77 74
-11.073 -0.323135 -6.39974 0.8901 0.131089 0.436507 76 76 73
-11.0839 -0.350051 -6.35973 0.922973 0.010525 0.384721 84 76 68
-11.0905 -0.375725 -6.32227 0.965846 0.121146 0.229052 144 130 117
-11.0887 -0.320998 -6.32396 0.96044 0.137021 -0.242446 141 128 115
-11.0882 -0.317123 -6.32561 0.950088 0.136813 -0.280382 138 125 113
-11.1113 -0.342099 -6.27337 0.890187 -0.0189424 0.455201 160 147 131
-11.211 -0.36275 -6.13809 0.989892 0.131335 0.053532 174 171 164
-11.2275 -0.342121 -6.16862 0.607565 -0.746937 -0.270091 159 151 138
-11.2186 -0.317754 -6.13715 0.994374 0.0459381 -0.095445 171 168 160
-11.21 -0.35903 -6.05878 0.992734 -0.0325322 0.115846 151 156 159
-11.2011 -0.33824 -6.10778 0.940662 0.339332 0.00298637 103 104 103
-11.2227 -0.328005 -5.98655 0.991529 0.0976564 0.0856333 114 124 127
-11.2169 -0.358023 -6.02164 0.98948 -0.125912 0.0712386 118 125 129
-11.2109 -0.354827 -6.02664 0.979273 0.0980499 0.177228 124 131 135
-11.2189 -0.332367 -5.97908 0.99673 -0.00991896 0.0801944 82 92 95
-11.2248 -0.354239 -5.93847 0.957476 0.276607 0.0820225 112 121 121
-11.2497 -0.360928 -5.80247 0.992219 -0.0875937 -0.0884817 143 150 152
-11.2394 -0.331564 -5.85012 0.990715 -0.0193926 0.134563 156 165 166
-11.2435 -0.336844 -5.75943 0.989839 -0.102203 -0.0988633 125 133 137
-11.2431 -0.306259 -5.80568 0.99483 0.0998171 0.0186997 30 39 40
-11.2507 -0.308267 -5.70831 0.995319 -0.0272524 0.0927232 174 184 191
-11.2557 -0.336809 -5.65899 0.853472 0.511251 0.101039 174 183 190
-11.2764 -0.341182 -5.59188 0.940143 0.106299 0.323778 170 179 185
-11.2473 -0.304874 -5.61509 0.850284 -0.494288 0.180823 165 178 185
-11.3082 -0.338362 -5.4673 0.895295 0.322101 0.307729 171 178 181
-11.2361 -0.316968 -5.41143 0.936585 -0.250934 0.244623 170 178 183
-11.3291 -0.279003 -5.06818 0.846117 -0.526776 0.0811972 151 168 170
-11.3867 -0.303319 -4.90353 0.996468 0.0600941 -0.0586574 157 169 171
-11.3787 -0.304024 -4.78637 0.98406 0.0532632 0.169673 103 99 97
-11.3861 -0.319691 -4.70761 0.990804 -0.0993253 0.0918802 145 146 144
-11.3833 -0.283112 -4.70142 0.993899 -0.0398598 0.102841 132 136 134
-11.403 -0.279212 -4.56388 0.987351 0.089103 0.131146 47 55 55
-11.4247 -0.281994 -4.43372 0.988516 0.0850653 0.124904 51 61 63
-11.4391 -0.283134 -4.30905 0.989262 -0.0336923 0.142215 137 149 150
-11.451 -0.275673 -4.15053 0.998625 0.0387936 0.035268 165 177 178
-11.4738 -0.238388 -4.06318 0.956635 0.280403 0.0788938 163 175 176
-11.4791 -0.27866 -3.98763 0.988412 0.102329 0.112116 161 167 169
-11.5153 -0.247911 -3.83627 0.96362 0.262313 -0.051268 166 170 173
-11.5093 -0.284548 -3.75868 0.992487 0.0855842 0.087431 71 67 70
-11.5064 -0.256654 -3.73528 0.993069 0.0825972 0.0836148 137 137 141
-11.5509 -0.260742 -3.52223 0.992733 0.102149 0.0636086 70 73 78
-11.5505 -0.268555 -3.35195 0.99913 0.0186924 0.0372796 106 110 111
-11.5537 -0.21757 -3.27756 0.97936 0.196832 0.0459379 75 85 83
-11.5992 -0.254234 -3.14325 0.9953 0.062734 0.0737712 83 90 88
-11.6452 -0.198078 -2.99222 0.791987 -0.594231 -0.140164 43 51 45
-11.6275 -0.257686 -2.90035 0.929728 0.246359 -0.273704 117 122 115
-11.6857 -0.206544 -2.88008 0.532548 -0.358202 -0.766866 63 70 64
-11.6248 -0.200788 -2.84739 0.521361 -0.306894 -0.79624 96 97 91
-11.5222 -0.194366 -2.79745 0.217565 -0.530658 -0.819187 96 84 65
-10.9555 -0.397172 -8.58638 0.976682 0.0388978 0.211137 167 178 184
-10.9493 -0.401949 -8.58734 0.94778 0.027833 0.317707 167 179 185
-11.1227 -0.31597 -6.93109 0.988758 -0.00681788 -0.149367 41 53 53
-11.1275 -0.334134 -6.8991 0.994813 0.095727 -0.0344005 147 160 159
-11.1219 -0.299844 -6.9014 0.903585 -0.385233 0.18743 100 111 111
-11.1427 -0.345387 -6.86513 0.75962 -0.331566 -0.559501 146 158 160
-11.1295 -0.309766 -6.86829 0.93182 -0.0373353 0.360996 136 148 146
-11.1606 -0.33375 -6.82908 0.896538 -0.0543569 -0.43962 56 68 69
-11.1303 -0.313278 -6.80636 0.936729 0.114713 -0.330725 153 163 166
-11.1342 -0.280294 -6.8064 0.409948 0.00411472 -0.9121 146 156 157
-11.1356 -0.296184 -6.83589 0.970658 0.150646 -0.187427 50 61 62
-11.1558 -0.336748 -6.76719 0.726708 -0.682596 0.0771891 169 180 185
-11.126 -0.296048 -6.7782 0.525673 -0.768422 -0.364959 170 181 184
-11.1047 -0.282375 -6.78032 0.45607 -0.726748 -0.51365 168 180 183
-11.1572 -0.314906 -6.70911 0.842169 -0.105134 0.528866 126 123 123
-11.1541 -0.280552 -6.67682 0.80518 -0.586108 0.0903453 98 82 73
-11.1545 -0.303498 -6.70234 0.580141 -0.688695 -0.434898 106 99 97
-11.0735 -0.329988 -6.66495 0.686189 0.0127279 -0.727312 138 119 100
-11.1226 -0.315505 -6.54207 0.895908 0.0422969 -0.442221 136 122 102
-11.124 -0.314744 -6.5402 0.838348 0.0439744 -0.543359 134 121 101
-11.1274 -0.281392 -6.54072 0.723975 0.140432 -0.675381 135 121 101
-11.1017 -0.295779 -6.51254 0.918974 0.270364 -0.287038 71 63 51
-11.1443 -0.298508 -6.56444 0.468722 -0.765259 -0.441223 143 127 105
-11.1241 -0.315801 -6.5404 0.835675 0.0540239 -0.546561 135 121 101
-11.039 -0.289941 -6.45746 0.861572 -0.217198 0.458823 70 75 74
-11.0871 -0.31374 -6.48625 0.847897 -0.068421 -0.525727 56 56 50
-11.0791 -0.26695 -6.4049 0.91434 0.0922449 0.394301 75 77 75
-11.0773 -0.266497 -6.40199 0.895613 0.0851018 0.436617 74 77 74
-11.0802 -0.294407 -6.36227 0.906005 0.0806926 0.415503 82 75 68
-11.1031 -0.268029 -6.31759 0.953951 0.0281371 0.298639 141 129 116
-11.169 -0.313334 -6.20433 0.911629 -0.0994843 0.398792 157 147 133
-11.1128 -0.293472 -6.2773 0.938754 0.0590576 0.33949 160 146 130
-11.201 -0.281875 -6.18897 0.87207 0.139049 0.469211 158 149 133
-11.1742 -0.272511 -6.20818 0.940669 0.0229134 0.338552 157 147 131
-11.2128 -0.256685 -6.14236 0.980879 0.194582 -0.00378051 172 170 162
-11.2174 -0.310045 -6.0531 0.985428 0.0697806 0.155122 60 66 69
-11.2077 -0.295483 -6.10591 0.980251 0.197557 -0.00884447 99 102 100
-11.2202 -0.258919 -6.05364 0.990783 0.0546127 0.12396 161 168 171
-11.2341 -0.294193 -5.91769 0.993313 0.0462947 0.105764 104 114 112
-11.2306 -0.267857 -5.96272 0.99094 -0.00785816 0.134076 99 110 111
-11.2371 -0.267193 -5.8741 0.991921 0.0477222 0.117543 173 183 184
-11.2386 -0.280142 -5.85449 0.993179 0.0398058 0.109592 145 155 155
-11.2544 -0.280699 -5.75084 0.996292 0.00235063 0.0860074 123 134 138
-11.2485 -0.252685 -5.80029 0.996126 -0.0319771 0.0819212 73 84 85
-11.2675 -0.252884 -5.69449 0.99576 -0.00947684 0.0914969 174 184 190
-11.2408 -0.257205 -5.61189 0.939597 -0.25005 -0.233737 168 178 183
-11.306 -0.233138 -5.60169 0.917513 -0.386274 -0.0946701 166 176 180
-11.2152 -0.2597 -5.56071 0.884299 0.359063 0.298478 168 178 181
-11.2616 -0.23796 -5.50879 0.866143 -0.21747 -0.450003 165 176 178
-11.2284 -0.223833 -5.45799 0.839312 0.395463 -0.373048 170 180 180
-11.1968 -0.264478 -5.47763 0.837529 0.483757 0.254018 169 180 184
-11.2724 -0.230248 -5.31928 0.878054 0.452246 -0.156505 167 179 180
-11.2492 -0.254425 -5.28455 0.750634 0.649025 0.123758 166 178 181
-11.2169 -0.231162 -5.26004 0.857498 -0.279781 -0.431763 164 176 177
-11.2531 -0.235318 -5.12087 0.790902 0.611086 -0.0323682 159 170 171
-11.2653 -0.209729 -5.16954 0.864063 -0.472884 -0.172555 162 171 170
-11.3007 -0.257181 -5.06279 0.931704 -0.314918 0.180982 153 167 170
-11.4277 -0.269662 -4.93342 0.912872 0.343312 0.220911 148 165 168
-11.3853 -0.26571 -4.85047 0.966374 -0.0806274 -0.244172 153 159 159
-11.3712 -0.204173 -4.86014 0.999074 -0.00723723 0.0424222 154 156 150
-11.3732 -0.236624 -4.79553 0.993676 -0.0265153 0.10911 89 88 84
-11.3634 -0.198181 -4.69358 0.915909 -0.364909 -0.16719 152 154 149
-11.4455 -0.215932 -4.57316 0.786241 0.616275 -0.0450647 153 161 158
-11.3874 -0.19037 -4.61157 0.960579 -0.241627 0.137491 138 140 134
-11.4491 -0.250472 -4.46298 0.992694 0.0863137 0.0843102 126 136 136
-11.4414 -0.191193 -4.49548 0.90215 -0.212776 -0.375301 140 142 136
-11.4372 -0.246767 -4.36952 0.992195 0.0757254 0.0990719 131 143 143
-11.434 -0.210364 -4.32191 0.993665 0.054271 0.0984053 163 173 170
-11.423 -0.24109 -4.27105 0.989968 -0.043591 0.134402 151 165 165
-11.4339 -0.237032 -4.23569 0.997732 -0.0275318 0.0614297 160 173 172
-11.4506 -0.201295 -4.15478 0.998424 0.0544959 0.0133888 164 175 174
-11.474 -0.199133 -4.01475 0.997891 0.0649018 -0.00063324 163 173 174
-11.4753 -0.225459 -3.99041 0.985078 0.151556 0.0815574 161 172 173
-11.5027 -0.163655 -3.79183 0.99228 -0.107017 0.0626724 151 163 161
-11.4635 -0.1615 -3.84633 0.991666 -0.11536 0.0573659 151 163 161
-11.5204 -0.210178 -3.64827 0.993599 0.0917602 0.0658878 156 164 166
-11.5166 -0.1627 -3.58601 0.97903 0.194501 0.0605802 147 158 155
-11.5296 -0.164443 -3.41124 0.983205 0.176931 0.0447478 138 148 147
-11.567 -0.18895 -3.32459 0.959355 0.282175 0.00382832 136 148 148
-11.5667 -0.198027 -3.19754 0.960121 0.279426 0.00947437 70 79 75
-11.6219 -0.19265 -3.01236 0.995866 -0.0366945 0.083088 31 39 35
-11.603 -0.148015 -3.07251 0.926824 -0.374155 -0.0316926 117 126 121
-11.6279 -0.141767 -2.89191 0.541027 -0.720419 -0.433919 134 137 131
-11.6251 -0.145453 -2.89821 0.973113 -0.132436 -0.188443 134 139 134
-11.5465 -0.127861 -2.82672 0.192721 -0.708718 -0.678658 78 70 56
-10.9665 -0.339102 -8.58938 0.906932 -0.0985176 0.409595 166 177 182
-10.9707 -0.335059 -8.58807 0.8828 -0.140804 0.448151 166 177 182
