ply
format ascii 1.0
element vertex 717
property float x
property float y
property float z
property float nx
property float ny
property float nz
property uchar diffuse_red
property uchar diffuse_green
property uchar diffuse_blue
end_header
-5.82193 -0.395722 -6.25762 -0.235763 0.0164036 0.971672 110 81 61
-5.87133 -0.389055 -6.26065 -0.100786 -0.037179 0.994213 123 101 81
-5.97984 -0.355877 -6.28282 -0.544229 -0.0345807 0.838224 112 111 103
-6.00332 -0.342248 -6.29567 -0.713603 -0.172302 0.679031 30 35 38
-5.83042 -0.376129 -6.25384 -0.421572 -0.633034 0.649265 110 81 61
-5.88881 -0.355423 -6.26314 -0.875451 -0.0972366 0.473424 146 129 112
-5.95587 -0.340674 -6.27181 -0.663196 -0.658872 0.355048 157 149 135
-5.98297 -0.326219 -6.28177 -0.537816 -0.0307466 0.842501 107 106 97
-5.98633 -0.333632 -6.30947 -0.448087 -0.179193 0.875847 25 32 34
-6.00395 -0.313091 -6.29641 -0.566955 -0.551794 0.611625 26 31 31
-5.85356 -0.342954 -6.25319 -0.289892 -0.0904755 0.952773 106 80 61
-5.93276 -0.320929 -6.25521 -0.648513 -0.586641 0.48506 159 148 131
-5.78637 -0.354162 -6.26781 -0.20967 -0.0925379 0.973383 107 77 57
-5.79531 -0.350118 -6.25019 -0.358524 -0.0377795 0.932756 106 76 55
-5.88494 -0.328715 -6.24012 -0.779571 -0.243355 0.577103 106 82 64
-5.95785 -0.302425 -6.25974 -0.560719 -0.0793648 0.824194 156 148 133
-5.98972 -0.288708 -6.28185 -0.471051 -0.0500673 0.880684 84 82 73
-5.83465 -0.316935 -6.2437 -0.377022 -0.0861464 0.922189 101 74 53
-5.91319 -0.289359 -6.26243 -0.636911 0.0588457 0.768688 160 147 130
-5.9667 -0.272509 -6.25654 -0.629829 -0.663706 0.403497 159 150 135
-5.9913 -0.265067 -6.29811 -0.000449821 0.603693 0.797217 25 26 23
-5.88763 -0.272204 -6.27896 -0.549365 -0.14122 0.823563 158 144 128
-5.95161 -0.26745 -6.29453 -0.0763585 0.608467 0.789897 141 138 125
-5.79542 -0.289466 -6.24623 -0.414636 0.0582174 0.908123 102 75 53
-5.84797 -0.268783 -6.24647 -0.242853 0.856776 0.454925 101 76 55
-5.83964 -0.267514 -6.24928 -0.266058 0.885557 0.380791 99 74 53
-5.90604 -0.257556 -6.26684 -0.23735 -0.165174 0.957279 155 141 124
-5.87458 -0.255288 -6.25911 -0.706612 -0.0843121 0.70256 115 94 76
-5.88976 -0.243619 -6.27992 -0.424587 -0.541838 0.725354 154 139 123
-5.7643 -0.25323 -6.25688 -0.622479 -0.162718 0.765534 96 71 49
-5.87234 -0.237935 -6.22696 -0.615751 -0.370633 0.695328 99 74 53
-5.8781 -0.22654 -6.25904 -0.893973 -0.34787 0.282488 117 97 79
-5.91175 -0.22718 -6.27543 -0.387053 -0.106981 0.91583 153 141 125
-5.82315 -0.219002 -6.23166 -0.377863 -0.772963 0.509654 95 69 46
-5.88258 -0.207559 -6.22798 -0.604396 -0.195772 0.772255 96 73 52
-4.12058 -0.72409 -2.36149 -0.841199 -0.535585 0.0743832 45 51 53
-5.87945 -0.180281 -6.23677 -0.612813 -0.771055 0.173018 97 76 56
-6.0245 -2.4278 -6.34144 -0.0996788 0.244512 0.964509 155 141 132
-6.05354 -2.3708 -6.3608 -0.154239 0.166893 0.973836 171 157 150
-6.12067 -2.27568 -6.35753 -0.0571647 0.214274 0.9751 136 122 116
-6.31197 -1.88449 -6.3511 -0.0616745 0.115862 0.991349 105 95 91
-6.41996 -1.67182 -6.40575 0.0190505 0.193874 0.980842 92 85 82
-6.59927 -1.36417 -6.37527 -0.0116381 0.267826 0.963397 116 94 80
-6.12973 -2.17104 -6.34131 -0.0196843 0.153905 0.98789 127 115 110
-6.17253 -2.08994 -6.34297 -0.0502596 0.270332 0.961454 130 118 112
-6.1789 -2.09501 -6.34504 -0.00565001 0.162776 0.986647 130 118 112
-6.21862 -2.02348 -6.34913 -0.0177813 0.183309 0.982895 90 77 72
-6.27305 -1.94713 -6.34672 -0.0558777 0.114336 0.99187 72 61 57
-6.40956 -1.66064 -6.34935 -0.0250799 0.152993 0.987909 105 99 96
-6.43499 -1.6156 -6.35764 -0.0114201 0.176835 0.984174 89 82 79
-6.46248 -1.56626 -6.36852 -0.200187 0.109657 0.973602 161 155 148
-6.49406 -1.52406 -6.33661 -0.0789712 0.642619 0.762105 172 163 159
-6.51683 -1.50034 -6.35415 -0.20943 0.135003 0.968459 169 158 153
-6.5193 -1.47137 -6.34571 0.00682065 0.529318 0.848396 164 151 145
-6.56178 -1.40666 -6.34384 0.216313 0.7427 0.633724 117 99 89
-6.56694 -1.37247 -6.3677 0.301093 0.686831 0.661518 115 92 78
-5.96346 -2.41685 -6.32794 -0.260191 0.304279 0.916359 154 140 132
-6.01176 -2.32881 -6.33179 -0.0619512 0.140918 0.988081 176 162 155
-6.07476 -2.25081 -6.33874 -0.0338892 0.189732 0.981251 137 125 120
-6.12224 -2.16757 -6.34029 -0.0410017 0.133681 0.990176 135 123 118
-6.15609 -2.09577 -6.348 -0.0360552 0.131336 0.990682 131 119 113
-6.33813 -1.76404 -6.34674 -0.0830958 0.110437 0.990403 67 59 56
-6.3667 -1.72054 -6.35224 -0.177482 0.0775891 0.981061 69 61 58
-6.48412 -1.49087 -6.33639 0.167294 0.628179 0.759871 172 162 155
-6.52588 -1.4266 -6.33342 0.217201 0.745635 0.629963 114 99 89
-6.67225 -1.18078 -6.27003 0.0254501 0.0784039 0.996597 116 92 76
-6.6875 -1.14789 -6.27717 -0.00795203 0.0971574 0.995237 120 96 80
-6.67861 -1.1735 -6.33601 -0.155386 0.107152 0.982025 115 92 75
-6.00145 -2.29638 -6.2959 -0.116717 0.630089 0.767702 193 178 173
-6.22049 -1.9352 -6.33727 -0.101761 0.168317 0.980466 66 55 51
-6.25038 -1.88271 -6.34897 -0.166596 0.225467 0.959901 66 57 54
-6.30583 -1.76095 -6.34445 -0.0273835 0.102542 0.994352 62 54 50
-6.35911 -1.68974 -6.31535 0.313861 0.591837 0.742442 49 40 34
-6.40956 -1.57147 -6.36461 -0.178191 0.132272 0.975065 164 154 151
-6.59264 -1.29236 -6.34412 0.00853573 0.0721818 0.997355 119 97 82
-6.59264 -1.29236 -6.34412 0.00853573 0.0721818 0.997355 119 95 79
-6.00128 -2.2569 -6.32865 0.3467 0.865488 0.361566 127 114 108
-6.0171 -2.19153 -6.3452 -0.119753 0.0608807 0.990935 154 141 137
-6.05435 -2.17 -6.33954 -0.0729861 0.153597 0.985434 152 139 135
-6.1095 -2.07221 -6.32334 -0.130966 0.0864959 0.987606 141 129 124
-6.14357 -2.0063 -6.33032 -0.310611 0.147599 0.939008 127 115 109
-6.14758 -2.00718 -6.33171 -0.322351 0.150826 0.934528 123 111 105
-6.13824 -1.99613 -6.32659 -0.431824 0.353773 0.829682 132 120 114
-6.19803 -1.93126 -6.32823 -0.130102 0.16877 0.977031 71 59 55
-6.22653 -1.88005 -6.341 -0.129665 0.186749 0.973813 64 53 50
-6.25156 -1.83323 -6.35522 0.0762758 0.223693 0.971671 68 58 55
-6.3146 -1.69559 -6.37395 -0.0203074 0.14258 0.989575 99 90 86
-6.38114 -1.61572 -6.35603 -0.0314005 0.142035 0.989363 93 82 80
-6.50991 -1.38675 -6.32434 -0.253959 0.319596 0.912887 122 103 90
-6.58629 -1.26468 -6.31572 0.0104361 0.0521543 0.998585 120 95 78
-6.58692 -1.26424 -6.31525 0.0100783 0.0522847 0.998581 120 95 78
-6.62454 -1.21276 -6.30531 -0.00771628 0.0703949 0.997489 116 92 75
-6.61923 -1.21873 -6.31053 -0.0145741 0.0754306 0.997045 116 92 75
-6.62733 -1.21171 -6.30329 -0.0367497 0.0987893 0.99443 116 92 76
-6.62577 -1.21192 -6.3044 -0.00914244 0.0716609 0.997387 116 92 76
-6.64855 -1.16458 -6.32611 -0.0578413 0.199694 0.97815 113 90 73
-6.30382 -1.69203 -6.32829 0.185161 0.435814 0.880785 71 59 56
-6.38374 -1.57141 -6.3166 0.0231758 0.230388 0.972823 98 88 83
-6.4017 -1.53877 -6.33078 -0.105723 0.123928 0.986643 146 136 131
-6.39146 -1.52215 -6.3621 -0.16335 0.191012 0.9679 173 161 154
-6.44919 -1.45066 -6.34076 -0.279669 0.16785 0.94531 138 124 113
-6.48279 -1.38767 -6.36841 -0.308601 0.282771 0.908188 120 98 82
-6.62881 -1.18088 -6.27106 0.0209697 0.0707612 0.997273 117 92 76
-6.48129 -1.38004 -6.31362 -0.108126 0.366081 0.92428 123 104 91
-6.50519 -1.32025 -6.3733 0.00377482 0.0573392 0.998348 120 94 78
-6.60281 -1.17588 -6.30795 -0.00442378 0.0719584 0.997398 120 96 79
-6.60921 -1.17118 -6.3036 -0.0297801 0.0982266 0.994718 120 96 79
-6.61271 -1.16775 -6.30075 -0.0293514 0.0973214 0.99482 120 96 79
-6.63272 -1.12365 -6.32241 -0.054152 0.220801 0.973814 113 89 72
-6.52885 -1.24838 -6.34151 -0.0190993 0.0640134 0.997766 117 92 76
-6.56165 -1.19974 -6.33733 -0.113146 0.184307 0.976334 113 91 73
-6.58638 -1.16287 -6.33931 -0.0250541 0.159612 0.986862 110 88 69
-6.42643 -1.37367 -6.34861 -0.0281883 0.200492 0.97929 123 101 85
-6.55515 -1.18636 -6.34463 0.339417 0.875607 0.34367 109 88 69
-6.42069 -1.36983 -6.2301 -0.820934 -0.284343 0.495193 162 153 143
-6.36492 -1.42609 -6.34887 0.363353 0.737206 0.56965 117 99 84
-6.6462 -1.07489 -6.07079 -0.990031 -0.0888182 0.109315 125 99 83
-6.5503 -1.15086 -6.34155 0.434628 0.690325 0.578402 106 86 65
-6.59791 -1.07667 -6.32938 -0.00337002 0.0118915 0.999924 115 91 74
-6.5744 -1.12468 -6.09558 -0.981626 -0.132995 0.136833 122 100 85
-6.59821 -1.08485 -6.11845 -0.994702 -0.0767069 0.0684335 116 92 74
-6.59821 -1.08485 -6.11845 -0.994702 -0.0767069 0.0684335 116 92 74
-6.52304 -1.17814 -6.35596 -0.244198 0.520704 0.818068 110 88 69
-6.19326 -1.59998 -6.35053 -0.851525 -0.242519 0.464854 142 129 125
-6.47242 -1.13311 -6.36557 -0.426935 0.30347 0.851841 116 90 72
-6.39036 -1.23645 -6.34237 -0.0417256 0.147763 0.988142 119 96 78
-6.39379 -1.23204 -6.33973 0.0214608 0.0616412 0.997868 120 96 78
-6.34643 -1.24226 -6.32918 0.056599 0.0454934 0.99736 114 90 72
-6.46404 -1.03037 -6.37395 -0.611494 -0.193771 0.767156 114 94 80
-6.4339 -1.01702 -6.36093 -0.703924 -0.078653 0.705907 115 95 82
-6.43962 -0.981978 -6.35959 -0.702415 -0.0940701 0.705524 178 164 152
-6.38017 -1.02699 -6.35534 -0.472325 -0.176279 0.863617 115 91 78
-6.40438 -0.99136 -6.35677 -0.688238 -0.059861 0.723012 169 153 140
-6.40187 -0.96057 -6.36048 -0.766498 0.143682 0.625969 175 163 151
-6.52162 -0.861387 -6.26431 0.00396441 0.0020048 0.99999 169 158 146
-6.24862 -1.1202 -6.32703 -0.00649112 0.0369437 0.999296 122 95 78
-6.44793 -0.901442 -6.26757 -0.186808 0.171808 0.967256 182 167 156
-6.48372 -0.859835 -6.26019 -0.0152582 0.101345 0.994734 171 159 148
-6.19699 -1.09532 -6.32802 -0.0555371 0.168723 0.984098 111 83 64
-6.34623 -0.958224 -6.35003 -0.727371 -0.242018 0.642151 179 165 153
-6.4375 -0.863051 -6.26392 -0.0236223 0.0883831 0.995806 173 161 149
-6.4375 -0.863051 -6.26392 -0.0236223 0.0883831 0.995806 173 161 149
-6.42313 -0.849188 -6.2798 0.0937189 0.243097 0.965464 167 159 147
-6.43423 -0.823585 -6.29375 -0.119011 0.142215 0.982655 113 111 109
-6.45543 -0.791954 -6.29699 -0.339794 0.272027 0.900301 63 66 82
8.98465 -15.5247 -0.490729 -0.735953 0.163395 0.65702 142 132 120
-6.3348 -0.874076 -6.31643 -0.414897 -0.0130652 0.909774 167 158 146
-6.39406 -0.826808 -6.29543 -0.0814175 0.170466 0.981994 117 116 116
-6.37135 -0.820275 -6.27487 -0.3345 0.0109453 0.942332 144 140 135
-6.4089 -0.797974 -6.30533 -0.0131767 0.143883 0.989507 42 49 69
-6.43363 -0.772792 -6.30529 -0.504943 0.359134 0.784892 76 84 107
-6.36541 -0.807023 -6.30387 -0.0537149 0.321055 0.945536 33 40 54
-6.32018 -0.816365 -6.30633 -0.16313 0.266897 0.949818 53 54 62
-6.38519 -0.776073 -6.31182 -0.428844 -0.530036 0.731543 38 50 74
-6.34646 -0.778411 -6.31345 -0.0635237 0.0827567 0.994543 41 51 73
-6.34537 -0.750174 -6.3081 -0.236212 -0.10704 0.965788 71 78 94
-6.28885 -0.775868 -6.30957 -0.216503 -0.143354 0.9657 107 108 118
-6.30599 -0.74257 -6.31146 -0.250409 -0.106761 0.962236 119 120 125
-6.26077 -0.737725 -6.30103 -0.0692805 -0.103443 0.99222 144 143 145
-6.32602 -0.709962 -6.31214 -0.338997 -0.123331 0.932668 120 121 123
-6.34763 -0.678729 -6.31196 -0.0619114 -0.179183 0.981866 75 77 81
-4.84839 -1.7249 -6.16357 -0.602661 -0.385473 0.698721 77 67 70
-6.28833 -0.711722 -6.30346 -0.242065 -0.08882 0.966186 149 146 142
-6.307 -0.68144 -6.30525 -0.159069 -0.126122 0.979178 146 145 140
-6.27403 -0.702026 -6.30445 -0.0816725 -0.0456886 0.995612 151 149 147
-6.32649 -0.651489 -6.30289 -0.0491 -0.11845 0.991745 137 134 132
-4.14374 -2.4907 -2.73003 -0.838573 -0.446494 -0.312152 93 79 75
-5.71014 -1.06211 -6.28691 -0.693035 -0.551888 0.463813 36 27 21
-5.75885 -1.02404 -6.27119 -0.549497 -0.528145 0.647391 41 30 25
-6.23447 -0.705572 -6.29847 -0.151641 -0.0567661 0.986804 104 103 112
-6.29773 -0.615532 -6.30047 -0.0377575 -0.151435 0.987746 84 83 86
-6.21807 -0.645456 -6.30562 -0.259707 0.0105702 0.96563 101 100 107
-6.25417 -0.609255 -6.29867 -0.112744 -0.128858 0.985233 54 54 59
-6.19969 -0.618195 -6.3042 -0.111439 0.113109 0.987313 77 76 81
-6.26332 -0.584908 -6.30414 -0.101001 -0.0961493 0.990229 24 26 29
-6.21816 -0.586095 -6.30477 -0.0490584 0.0608589 0.99694 21 22 26
-6.24985 -0.547812 -6.30101 -0.137625 0.0836776 0.986943 20 24 30
-4.89275 -1.29463 -6.1425 -0.637196 -0.530221 0.559327 174 149 132
-6.18474 -0.561922 -6.31586 0.095916 -0.0688658 0.993004 22 23 28
-6.18303 -0.548493 -6.28236 0.0729478 -0.0821171 0.993949 21 23 27
-6.18303 -0.548493 -6.28236 0.0729478 -0.0821171 0.993949 21 23 27
-6.22286 -0.53862 -6.2649 -0.180369 0.0805393 0.980296 21 23 29
-6.2089 -0.529326 -6.29311 -0.12099 -0.123507 0.98494 24 28 36
-6.24828 -0.512652 -6.29105 -0.131201 0.109812 0.985255 34 39 50
-6.25733 -0.506747 -6.23845 -0.00506534 0.0316691 0.999486 24 27 35
-6.2395 -0.506338 -6.27053 -0.301231 0.0576907 0.951804 33 38 49
-6.12371 -0.527434 -6.31067 -0.212415 0.0558409 0.975583 29 32 43
-6.11399 -0.528501 -6.3159 -0.452284 -0.507915 0.733118 30 33 44
-6.05047 -0.540842 -6.34793 -0.353137 -0.548115 0.758198 29 33 44
-6.22099 -0.479316 -6.26886 -0.256194 0.0752643 0.963691 38 45 61
-6.2014 -0.488519 -6.2854 -0.00918996 0.0277352 0.999573 39 46 61
-6.21702 -0.478384 -6.2713 -0.101363 0.113238 0.988384 37 45 61
-6.08715 -0.502195 -6.31973 -0.0512786 0.0712289 0.996141 33 40 54
-6.13356 -0.498169 -6.32253 0.0829188 -0.097047 0.99182 34 42 60
-6.08922 -0.498227 -6.30538 7.89762e-005 0.0905317 0.995894 32 38 53
-6.15258 -0.461856 -6.2973 -0.0275527 0.0917059 0.995405 29 40 59
-6.18049 -0.451205 -6.2859 -0.00101109 0.0201173 0.999797 29 41 61
-4.02006 -1.6136 -2.91947 -0.930048 -0.189474 0.314819 147 141 129
-6.09412 -0.465213 -6.30542 -0.00315274 0.0749215 0.997184 26 36 54
-4.04994 -1.57658 -2.85815 -0.930138 -0.120499 0.346877 146 138 127
-6.1422 -0.417884 -6.2995 -0.37839 -0.642539 0.666306 27 40 61
-6.06649 -0.43062 -6.30817 -0.49462 -0.729637 0.472208 23 35 53
-6.08627 -0.43404 -6.32642 -0.202231 -0.0831914 0.975798 26 38 59
-6.023 -0.408355 -6.31228 -0.376053 0.925229 0.0503436 22 34 50
-6.06989 -0.399104 -6.32063 -0.0346046 -0.0978783 0.994597 23 36 54
-6.05009 -0.282804 -6.28843 -0.221058 0.00424403 0.975251 23 28 32
-6.00168 -0.244653 -6.27021 -0.327414 -0.34911 0.878022 99 94 84
-6.00065 -0.248652 -6.27277 -0.063977 -0.132157 0.989162 91 86 77
-6.03688 -0.245364 -6.27914 -0.11343 -0.0757097 0.990657 23 25 23
-5.9768 -0.208102 -6.26569 -0.0681443 -0.141186 0.987635 146 139 125
-6.0142 -0.20898 -6.27425 -0.123564 -0.0924534 0.98802 68 63 53
-5.93858 -0.208389 -6.25585 -0.314062 -0.0392161 0.948592 155 141 124
-5.99281 -0.168057 -6.26578 -0.0855855 -0.139972 0.98645 140 134 118
-7.06883 -1.29821 -6.38023 0.411855 0.513479 0.752805 120 101 84
-7.05067 -1.29135 -6.40898 0.139176 0.0187315 0.990091 115 94 78
-7.07214 -1.25374 -6.40568 0.117529 -0.0355647 0.992432 116 99 80
-6.42944 -2.40144 -6.39564 -0.294608 0.289695 0.91065 183 171 161
-6.46913 -2.33315 -6.40486 -0.343578 0.228978 0.910782 123 112 104
-6.47203 -2.33362 -6.40575 -0.349207 0.286651 0.892124 122 110 102
-6.51031 -2.26229 -6.41096 -0.348718 0.534742 0.769706 133 119 112
-6.67706 -1.93291 -6.36575 -0.0578473 0.118295 0.991292 161 146 141
-7.00526 -1.3638 -6.421 0.42664 0.722986 0.543388 119 102 83
-7.04091 -1.29977 -6.43007 0.348498 0.381947 0.855959 114 94 77
-7.05876 -1.24864 -6.42498 0.435786 0.592604 0.67743 114 97 78
-6.32416 -2.56493 -6.37344 0.00366463 0.289127 0.957284 129 120 107
-6.32416 -2.56493 -6.37344 0.00366463 0.289127 0.957284 129 120 107
-6.32416 -2.56493 -6.37344 0.00366463 0.289127 0.957284 129 120 107
-6.38558 -2.40304 -6.37183 -0.458435 0.407001 0.790056 159 147 136
-6.5971 -2.0245 -6.37863 -0.0937713 0.585856 0.804972 151 136 131
-6.67518 -1.91686 -6.39812 -0.137031 0.00510648 0.990553 159 144 137
-6.69689 -1.88389 -6.37849 -0.0588705 -0.00138532 0.998265 158 143 136
-6.73544 -1.77768 -6.3785 0.0254991 0.0712639 0.997132 152 136 129
-6.76343 -1.72905 -6.38103 0.0248302 0.0569553 0.998068 148 134 127
-6.79197 -1.68028 -6.38189 0.0148598 0.00547445 0.999875 133 122 117
-6.79186 -1.67969 -6.38153 0.00439905 0.00934982 0.999947 133 122 117
-6.82093 -1.63242 -6.38249 -0.161144 0.065351 0.984765 144 137 132
-6.88811 -1.524 -6.3674 -0.0377791 -0.0572287 0.997646 165 160 152
-6.91475 -1.49317 -6.38063 -0.750005 0.220382 0.623638 154 144 134
-6.98886 -1.35511 -6.39164 -0.0863202 -0.131635 0.987533 116 96 79
-7.00649 -1.33046 -6.43867 0.309434 0.515958 0.798773 116 96 78
-6.23525 -2.62258 -6.39096 -0.157591 0.412178 0.897371 129 119 105
-6.3337 -2.48564 -6.36847 -0.269812 0.285019 0.919764 132 120 108
-6.40446 -2.34726 -6.396 -0.294008 0.212512 0.931879 154 142 134
-6.44941 -2.27264 -6.39753 -0.319847 0.347163 0.881576 102 89 83
-6.4461 -2.27691 -6.40316 -0.639491 0.327493 0.695557 106 92 86
-6.47806 -2.21974 -6.40928 -0.304943 0.505696 0.80702 135 119 113
-6.591 -1.99784 -6.40802 0.21567 0.299484 0.929406 149 133 130
-6.87635 -1.48867 -6.36439 -0.544664 0.235399 0.80494 159 155 145
-6.90038 -1.45399 -6.42043 0.399349 0.653232 0.643279 92 75 61
-6.94956 -1.39672 -6.42985 0.37751 0.834965 0.400401 112 94 76
-6.99424 -1.31395 -6.40074 0.30378 0.524321 0.795491 119 99 82
-6.99112 -1.32905 -6.43464 0.0727303 0.402383 0.912578 116 96 79
-7.03522 -1.24046 -6.39738 0.119796 -0.0319515 0.992284 119 100 82
-7.03522 -1.24046 -6.39738 0.119796 -0.0319515 0.992284 119 100 82
-7.04389 -1.22766 -6.41981 0.143824 -0.0459842 0.988534 115 97 78
-6.27962 -2.47612 -6.34896 -0.211442 0.292629 0.932556 134 120 108
-6.31484 -2.41506 -6.36498 -0.211444 0.2507 0.944691 155 141 131
-6.34913 -2.3545 -6.38181 -0.202959 0.282136 0.93766 165 152 144
-6.38724 -2.29101 -6.39331 -0.284334 0.249395 0.925719 109 95 90
-6.42384 -2.22793 -6.4008 -0.254677 0.389257 0.885222 142 127 123
-6.56514 -2.00412 -6.36847 0.0672984 0.423419 0.903431 149 133 130
-6.59539 -1.94878 -6.37492 -0.0301467 0.0360194 0.998896 145 131 126
-6.63144 -1.88776 -6.37625 -0.0560465 -0.00597736 0.99841 151 137 130
-6.66598 -1.82854 -6.377 -0.0475194 0.00963354 0.998824 152 137 130
-6.69937 -1.76762 -6.3772 -0.0652985 -0.0416516 0.996996 149 134 127
-6.72416 -1.71095 -6.36797 0.0381844 0.16969 0.984757 146 131 126
-6.74833 -1.67192 -6.37593 0.0119406 0.080041 0.99672 139 125 120
-6.7717 -1.6299 -6.38126 0.017626 0.0819998 0.996476 131 119 114
-6.79684 -1.59016 -6.38771 0.193972 0.186371 0.963141 136 129 122
-6.87783 -1.46774 -6.38707 -0.0657419 0.77468 0.628926 118 109 98
-6.89295 -1.44808 -6.43302 0.124305 0.0220548 0.991999 107 88 73
-6.21272 -2.55597 -6.34871 -0.00433065 0.220672 0.975339 131 119 107
-6.26387 -2.46308 -6.35147 -0.17593 0.680763 0.711063 137 122 111
-6.48723 -2.10039 -6.38969 0.0398408 0.328433 0.943687 142 127 124
-6.47847 -2.11007 -6.3961 0.033375 0.280032 0.95941 143 128 124
-6.47847 -2.11007 -6.3961 0.033375 0.280032 0.95941 143 128 124
-6.83469 -1.48404 -6.34288 0.142546 0.143545 0.979324 161 157 149
-6.9312 -1.3643 -6.44079 0.13338 0.237682 0.962142 120 100 82
-6.20951 -2.48892 -6.34236 -0.421753 0.462338 0.77998 135 121 110
-6.24797 -2.42428 -6.35672 -0.21099 0.300587 0.930124 148 134 125
-6.28166 -2.3654 -6.37379 -0.230568 0.266516 0.935846 173 159 151
-6.31693 -2.30606 -6.38992 0.0888574 0.233356 0.968323 107 94 87
-6.36446 -2.23483 -6.39122 0.020083 0.163836 0.986283 134 120 116
-6.41551 -2.1402 -6.40071 -0.231083 0.423745 0.875809 130 114 112
-6.59756 -1.82994 -6.37429 -0.0606449 -0.0145846 0.998053 138 126 120
-6.63383 -1.77448 -6.3765 -0.0705336 -0.0193627 0.997321 141 128 122
-6.66593 -1.71929 -6.37724 -0.0686066 -0.0149697 0.997531 141 128 123
-6.73295 -1.63515 -6.35075 -0.02326 0.173775 0.984511 142 128 123
-6.75504 -1.597 -6.35967 0.124427 0.187194 0.974411 135 123 117
-6.75576 -1.57886 -6.38569 0.145995 0.134303 0.980127 157 148 142
-6.80882 -1.51062 -6.34793 -0.127188 0.107302 0.986058 164 157 151
-6.80882 -1.51062 -6.34793 -0.127188 0.107302 0.986058 164 157 151
-6.85527 -1.41845 -6.29068 0.283294 0.376437 0.882066 161 155 148
-6.86339 -1.40501 -6.29846 0.143945 0.988435 0.0477172 157 152 144
-6.87272 -1.41039 -6.43746 0.0486067 0.115736 0.99209 114 92 77
-6.87272 -1.41039 -6.43746 0.0486067 0.115736 0.99209 114 92 77
-7.04142 -1.13588 -6.50013 0.102468 -0.019233 0.99455 102 84 69
-6.51451 -1.9611 -6.37846 -0.0738877 0.0116743 0.997198 143 131 127
-6.52906 -1.92376 -6.39708 -0.0368212 0.0715975 0.996754 139 127 122
-6.63539 -1.75227 -6.38159 0.154763 0.203083 0.966853 138 125 120
-6.7172 -1.61446 -6.33954 -0.0533169 0.193884 0.979575 142 130 126
-6.73058 -1.57351 -6.34698 0.145495 0.221034 0.964352 135 126 121
-6.80835 -1.47286 -6.30952 -0.110812 0.159543 0.980952 164 158 152
-6.83457 -1.41891 -6.28276 0.2757 0.861801 0.42578 162 158 151
-6.81695 -1.44951 -6.2944 -0.500559 0.500448 0.706394 164 159 153
-6.82896 -1.44357 -6.31316 0.17988 0.212864 0.960381 160 156 148
-6.86127 -1.38028 -6.40865 0.0424249 0.0746842 0.996304 114 93 78
-6.16259 -2.43491 -6.35862 -0.0664029 0.15753 0.985279 156 141 133
-6.19898 -2.37105 -6.37281 -0.0513722 0.173636 0.983469 164 149 142
-6.24605 -2.29576 -6.37916 -0.0681308 0.443453 0.893705 107 92 85
-6.30147 -2.22052 -6.38278 -0.0770045 0.254888 0.9639 113 97 92
-6.30147 -2.22052 -6.38278 -0.0770045 0.254888 0.9639 113 97 92
-6.35538 -2.14235 -6.38244 -0.318676 0.0914467 0.943442 98 84 81
-6.42191 -2.00794 -6.3615 0.130326 0.328016 0.935639 138 123 122
-6.46115 -1.95291 -6.3686 0.118215 0.349175 0.929571 136 123 120
-6.68972 -1.60715 -6.31131 -0.245888 0.581311 0.775639 133 122 119
-6.66874 -1.64394 -6.34001 0.0547493 0.0993199 0.993548 136 123 122
-6.69991 -1.58608 -6.33392 -0.251215 0.526737 0.812059 134 124 120
-6.77978 -1.46433 -6.28721 -0.0428813 0.137697 0.989546 155 148 142
-6.81156 -1.42099 -6.40089 -0.32995 0.0231403 0.943715 111 90 78
-6.8987 -1.28666 -6.33608 0.0750087 0.344221 0.935888 118 97 82
-7.00234 -1.13595 -6.50424 0.102083 -0.0194705 0.994585 104 87 73
-7.02655 -1.0898 -6.46397 0.0433271 0.119916 0.991838 114 99 85
-7.07007 -1.01453 -6.40414 0.160409 0.0661805 0.98483 123 113 100
-7.04706 -1.08219 -6.47405 0.108926 -0.0226511 0.993792 117 106 94
-6.27874 -2.22621 -6.37322 0.0487582 0.196624 0.979266 120 104 99
-6.39972 -2.02458 -6.29632 0.339452 0.843414 0.416443 81 65 61
-6.4911 -1.89506 -6.37306 -0.0519981 0.056651 0.997039 135 125 121
-6.53189 -1.83485 -6.37229 -0.0410158 0.151374 0.987625 136 127 122
-6.56776 -1.77317 -6.37054 -0.0139344 0.0438369 0.998942 130 121 118
-6.6026 -1.72865 -6.36607 -0.0937246 0.0379157 0.994876 134 123 121
-6.66594 -1.59809 -6.30199 -0.0803046 0.374617 0.923695 129 120 117
-6.69646 -1.54257 -6.33661 0.121104 0.367664 0.92204 139 132 127
-6.83105 -1.36589 -6.39804 0.0877586 0.0574077 0.994486 113 92 77
-6.86866 -1.2831 -6.33511 -0.123957 0.32422 0.937825 120 98 84
-6.87941 -1.28532 -6.35948 0.0702968 0.0399403 0.996726 119 98 82
-7.04855 -1.04635 -6.40738 0.0530601 0.114096 0.992052 128 113 97
-6.06768 -2.45846 -6.37009 -0.027583 0.171985 0.984713 168 154 146
-6.14234 -2.35379 -6.36238 -0.142344 0.117265 0.982846 149 135 129
-6.19008 -2.27719 -6.36258 -0.0746009 0.168034 0.982954 145 130 125
-6.24365 -2.18946 -6.3654 0.00521852 0.155447 0.98783 107 92 86
-6.28904 -2.11707 -6.37024 -0.0338983 0.177469 0.983542 69 54 49
-6.38942 -1.95726 -6.36776 -0.0631863 0.0337353 0.997431 96 84 81
-6.57133 -1.71476 -6.3605 -0.120811 0.0912864 0.988469 128 119 117
-6.67163 -1.57709 -6.32555 -0.0178326 0.473372 0.880682 130 122 118
-6.7553 -1.41737 -6.33405 -0.0692714 0.943403 0.324333 108 99 89
-6.77967 -1.41793 -6.35458 -0.105647 0.893411 0.436642 74 61 51
-6.78018 -1.4035 -6.38277 0.349269 0.618247 0.704118 111 91 79
-6.90534 -1.21047 -6.35203 0.0684831 0.220529 0.972973 121 100 82
-6.9162 -1.18465 -6.35955 0.105917 0.277235 0.954946 117 95 78
-6.32581 -2.04246 -6.37031 -0.232009 -0.000142157 0.972714 97 83 79
-6.42615 -1.8958 -6.36994 -0.0577551 0.0415736 0.997465 108 99 95
-6.46122 -1.83721 -6.37211 -0.0568105 0.0457928 0.997334 127 119 114
-6.50652 -1.76959 -6.36621 -0.0287093 0.032936 0.999045 133 124 121
-6.53231 -1.71983 -6.35506 0.0692966 0.122389 0.99006 130 122 118
-6.58552 -1.63399 -6.33205 -0.0862897 0.188988 0.978181 125 116 113
-6.6445 -1.56175 -6.31452 0.0418794 0.304207 0.951685 128 119 117
-6.64182 -1.54478 -6.33004 0.134488 0.443568 0.886093 137 129 126
-6.71642 -1.46201 -6.2978 -0.225036 0.307716 0.924484 168 160 155
-6.74199 -1.41767 -6.37619 0.189264 0.716279 0.671658 106 89 77
-6.77331 -1.36606 -6.37664 0.124625 0.597536 0.792098 116 93 80
-6.80497 -1.31036 -6.34129 -0.0369348 0.120674 0.992005 117 95 81
-6.80497 -1.31036 -6.34129 -0.0369348 0.120674 0.992005 117 95 81
-6.98302 -1.07141 -6.44252 0.0430942 0.121327 0.991677 132 116 102
-6.93859 -1.14242 -6.51853 0.105723 -0.0213948 0.994165 128 112 95
-7.00243 -1.04072 -6.44267 0.14524 0.00294755 0.989392 120 112 98
-6.18737 -2.17886 -6.35037 -0.124697 0.178315 0.97604 119 104 98
-6.19112 -2.1792 -6.35039 -0.0465464 0.198465 0.979002 119 104 97
-6.22605 -2.09798 -6.35138 -0.203363 0.189084 0.960672 128 114 108
-6.26014 -2.0476 -6.36644 -0.117769 0.196741 0.973357 95 80 76
-6.32693 -1.95881 -6.35855 -0.146302 -0.00579114 0.989223 108 95 92
-6.36625 -1.89472 -6.36171 -0.103298 0.13024 0.986087 83 71 68
-6.50649 -1.72559 -6.36312 -0.110553 0.103912 0.988423 129 120 117
-6.48579 -1.74402 -6.37797 -0.0656017 0.0444269 0.996856 128 120 116
-6.64671 -1.50732 -6.28875 -0.014526 0.245851 0.969199 127 118 117
-6.67857 -1.45964 -6.29192 -0.0903909 0.217224 0.971928 167 161 156
-6.69705 -1.449 -6.29311 -0.148627 0.125301 0.980923 167 160 155
-6.71035 -1.42171 -6.3236 0.146908 0.896694 0.417561 141 134 124
-6.72921 -1.41889 -6.35163 0.245474 0.893829 0.375251 79 67 56
-6.87361 -1.20723 -6.35199 0.0499504 0.197269 0.979076 121 99 82
-7.02575 -0.981627 -6.36745 0.106569 0.0454234 0.993267 131 119 107
-7.02025 -0.984162 -6.40872 0.135709 0.0491642 0.989528 162 158 148
-6.40595 -1.82876 -6.36146 -0.168997 0.0881967 0.981663 113 104 100
-6.45184 -1.76355 -6.35769 -0.0638498 0.0566025 0.996353 121 114 110
-6.49853 -1.67439 -6.36803 0.151718 0.305886 0.939902 127 118 115
-6.5858 -1.5745 -6.32726 0.128923 0.75605 0.64169 123 114 113
-6.68534 -1.4359 -6.31127 0.153786 0.640565 0.752347 164 158 150
-6.69978 -1.41467 -6.36983 -0.0342055 0.799957 0.599082 110 93 81
-6.70576 -1.41336 -6.39777 0.0616696 0.782041 0.620168 114 94 81
-6.79246 -1.28993 -6.33823 -0.0816852 0.193529 0.977688 121 97 83
-6.88987 -1.15182 -6.33546 0.126125 0.2088 0.969791 114 92 75
-6.89311 -1.14573 -6.52732 0.0988441 -0.0150857 0.994989 132 113 99
-6.34515 -1.83525 -6.35885 -0.0998833 0.123019 0.987365 78 69 67
-6.38004 -1.78052 -6.36327 -0.134185 0.146296 0.980098 84 76 74
-6.48465 -1.68218 -6.36823 -0.0512863 0.237843 0.969949 127 119 115
-6.52027 -1.62944 -6.36945 -0.0411646 0.200461 0.978836 123 114 111
-6.62528 -1.47111 -6.29747 -0.0141536 0.246373 0.969072 169 161 157
-6.62972 -1.44794 -6.31849 0.0755921 0.215677 0.973534 167 159 152
-6.65629 -1.42237 -6.32491 0.101814 0.589513 0.801317 131 121 111
-6.67556 -1.40416 -6.41268 -0.314135 0.413011 0.854834 117 93 79
-6.75089 -1.29741 -6.34221 -0.314794 0.316552 0.894818 121 97 82
-6.77273 -1.26056 -6.34427 0.136578 0.0930512 0.986249 117 94 77
-6.77111 -1.26317 -6.38882 0.122438 0.0534182 0.991038 121 96 79
-6.82462 -1.2173 -6.36513 -0.036314 0.273871 0.961081 122 99 82
-6.85509 -1.17721 -6.35979 0.130589 0.155031 0.979241 116 93 76
-6.929 -1.0766 -6.41381 0.0414029 0.0698687 0.996697 107 89 72
-6.95897 -1.03543 -6.40143 0.0892112 0.0328607 0.995471 108 91 78
-7.01249 -0.950529 -6.33182 0.105317 0.0245455 0.994136 150 139 127
-6.47981 -1.61174 -6.37347 0.0381192 0.426027 0.903907 97 88 85
-6.57356 -1.51214 -6.33006 -0.193763 0.129409 0.972476 171 162 158
-6.64848 -1.39869 -6.35298 0.277185 0.593508 0.75559 116 96 84
-6.905 -1.06755 -6.40556 0.0729787 0.0530329 0.995923 112 93 77
-6.94036 -1.02177 -6.38748 0.120017 0.0154991 0.992651 106 90 77
-6.51018 -1.55143 -6.33744 0.0928623 0.164392 0.982014 127 117 114
-6.59997 -1.41112 -6.32063 0.110923 0.766209 0.632945 115 99 91
-6.75317 -1.24099 -6.37029 0.118693 0.0447201 0.991923 119 97 78
-6.83118 -1.14886 -6.37441 -0.00691941 0.146402 0.989201 112 89 71
-6.98716 -0.938917 -6.32067 0.127072 0.00742619 0.991866 149 137 126
-7.01337 -0.897045 -6.3029 0.106578 0.025333 0.993982 160 154 144
-6.61416 -1.37374 -6.34084 -0.0287096 0.148694 0.988467 121 97 86
-6.73423 -1.21727 -6.32096 -0.0761396 0.152524 0.985362 118 95 78
-6.79573 -1.13355 -6.34489 0.00341259 -0.125427 0.992097 114 90 72
-6.81981 -1.12875 -6.48945 0.127548 0.0515443 0.990492 108 89 72
-6.82679 -1.12824 -6.48535 0.111506 -0.0519482 0.992405 107 89 71
-6.85658 -1.07587 -6.42123 0.112393 -0.0534077 0.992227 112 92 77
-6.89033 -1.03076 -6.40473 0.126943 0.0278802 0.991518 114 96 83
-6.90107 -1.01834 -6.38858 0.0827622 -0.0613781 0.994677 116 98 85
-6.90107 -1.01834 -6.38858 0.0827622 -0.0613781 0.994677 116 98 85
-6.66672 -1.27144 -6.32198 -0.0583642 0.0471319 0.997182 122 97 81
-6.73236 -1.19762 -6.37184 0.0872507 0.0604036 0.994353 115 92 74
-6.86715 -1.03008 -6.4072 0.0994908 -0.0526764 0.993643 120 102 89
-6.91884 -0.967017 -6.3626 0.139532 0.00964034 0.990171 165 152 141
-6.92625 -0.963231 -6.35487 0.142927 -0.00898244 0.989692 162 148 137
-6.91015 -0.970559 -6.37094 0.135786 0.0434607 0.989784 170 158 147
-6.90926 -0.972707 -6.37292 0.139746 0.0117779 0.990117 169 157 145
-6.95874 -0.92281 -6.34055 0.122307 -0.00911627 0.99245 166 159 149
-6.71652 -1.18613 -6.32266 -0.120272 0.144683 0.982141 121 96 78
-6.85651 -1.02397 -6.40187 0.110791 -0.0520383 0.99248 117 100 86
-6.93154 -0.940379 -6.36678 0.0851614 0.0441446 0.995389 163 158 147
6.46065 -15.3504 8.79705 -0.399475 0.908433 -0.123164 117 106 84
-6.71286 -1.14618 -6.35963 0.0031842 -0.108089 0.994136 116 90 72
-6.79064 -1.05722 -6.36244 0.031997 -0.094387 0.995021 111 88 70
-6.80196 -1.04972 -6.35278 0.0397032 -0.0924541 0.994925 111 87 69
-6.87356 -0.97428 -6.37537 0.104796 0.0571388 0.992851 177 167 154
-6.68099 -1.17092 -6.33355 -0.0555364 -0.0305331 0.99799 120 94 77
-6.68127 -1.14876 -6.35142 0.0234069 0.0564083 0.998133 117 91 74
-6.80684 -1.01384 -6.30333 0.0190209 0.142626 0.989594 114 89 72
-6.8272 -0.987773 -6.31132 -0.057528 -0.0851183 0.994709 110 90 72
-6.83102 -0.979511 -6.34718 -0.18512 0.140256 0.972656 125 109 95
-6.86377 -0.956855 -6.35518 0.115237 0.0729678 0.990654 179 169 156
-6.89721 -0.915498 -6.3395 0.113137 0.0149513 0.993467 166 161 148
-6.85811 -0.964652 -6.4063 0.122969 0.0381668 0.991676 160 157 145
-6.86668 -0.960463 -6.39865 0.110185 0.0618422 0.991985 161 157 145
-6.85811 -0.964652 -6.4063 0.122969 0.0381668 0.991676 160 157 145
-6.12087 -1.72912 -6.34943 -0.502032 -0.260445 0.824701 113 99 94
-6.68261 -1.11908 -6.31677 0.00589532 0.0122741 0.999907 117 91 75
-6.76175 -1.02698 -6.30955 0.104134 0.0321255 0.994044 115 89 72
-6.77055 -1.02232 -6.31089 -0.00659055 -0.112868 0.993588 114 88 71
-6.81461 -0.969102 -6.33068 -0.0664551 0.0751896 0.994952 126 111 97
-6.82767 -0.976285 -6.38134 0.261144 0.304774 0.915924 181 170 157
-6.84687 -0.946669 -6.38581 0.25155 0.287338 0.924208 166 161 149
-6.94383 -0.830927 -6.37725 0.273051 0.235462 0.932738 163 160 149
-6.97813 -0.799641 -6.38113 0.0898756 -0.0972267 0.991196 154 152 142
-6.66353 -1.13269 -6.3335 -0.013658 0.0758914 0.997023 117 91 75
-6.76635 -1.00005 -6.27869 0.0503613 -0.0396713 0.997943 115 89 72
-6.77274 -0.997225 -6.31614 0.0773695 -0.017644 0.996846 112 88 72
-6.78637 -0.989201 -6.31124 -0.0511701 -0.0751414 0.995859 112 91 74
-6.80925 -0.969474 -6.28742 0.00392769 0.0370758 0.999305 112 91 74
-6.83679 -0.930786 -6.36577 0.0901983 0.0452897 0.994893 168 162 149
-6.88813 -0.878531 -6.33626 0.171865 0.0503536 0.983833 167 162 150
-6.90933 -0.846992 -6.33194 0.111283 0.050854 0.992487 167 162 151
-6.96644 -0.800958 -6.375 0.290878 0.275856 0.916129 157 155 145
-6.96302 -0.790358 -6.3744 0.275456 0.227363 0.93404 158 156 145
-6.65116 -1.07043 -6.06672 -0.985879 -0.152171 0.0699038 129 100 85
-6.65407 -1.06738 -6.06404 -0.989721 -0.136332 0.043202 129 100 85
-6.74138 -0.991363 -6.3125 0.100076 0.0251735 0.994661 113 90 75
-6.74832 -0.986493 -6.30725 -0.00937248 -0.117089 0.993077 113 91 76
-6.77361 -0.971242 -6.33286 -0.0191655 -0.0285915 0.999407 131 116 101
-6.7708 -0.977001 -6.33868 -0.112121 -0.0265024 0.993341 127 112 97
-6.7936 -0.943188 -6.3354 0.0667133 0.00407434 0.997764 180 169 156
-6.79256 -0.963792 -6.3668 -0.137071 -0.0336322 0.98999 179 169 156
-6.91852 -0.827598 -6.37937 0.269087 0.239575 0.932843 162 159 147
-6.9353 -0.800982 -6.38267 0.230724 0.249698 0.940435 163 159 148
-5.32163 -2.41852 -6.26985 -0.476311 -0.133214 0.869127 158 135 129
-6.70278 -1.01282 -6.29468 0.0229984 0.00623787 0.999716 115 90 72
-6.7206 -0.99138 -6.2891 0.013233 0.012864 0.99983 114 90 73
-6.73691 -0.970276 -6.33087 -0.0178138 -0.0228578 0.99958 139 123 110
-6.75036 -0.964348 -6.36836 -0.00468535 -0.0407924 0.999157 179 169 157
-6.80342 -0.929165 -6.36666 0.0451103 0.0689751 0.996598 170 162 152
-6.8504 -0.861386 -6.35834 0.0992315 0.068126 0.99273 169 163 152
-6.89047 -0.828413 -6.38407 0.238606 0.159791 0.95788 162 159 148
-6.91799 -0.793861 -6.37515 0.234359 0.152116 0.960175 163 160 148
-6.69073 -0.997642 -6.27474 0.019297 -0.00478382 0.999802 115 90 73
-6.70732 -0.986457 -6.26201 0.0341948 -0.00193709 0.999413 115 90 73
-6.69818 -0.991645 -6.31503 0.0503629 -0.0396686 0.997943 113 91 75
-6.75943 -0.936756 -6.37573 0.0379918 -0.0677905 0.996976 172 164 153
-6.77393 -0.932578 -6.36702 0.0720954 0.00525368 0.997384 172 163 152
-6.8359 -0.849338 -6.38547 0.0857147 0.0446423 0.995319 167 162 150
-6.89861 -0.788258 -6.37092 0.229642 0.143618 0.962621 163 159 147
-6.93365 -0.765618 -6.37586 0.256315 0.192039 0.947324 156 153 143
-6.93935 -0.761526 -6.36863 0.184388 0.0634053 0.980806 156 153 143
-6.67419 -0.982288 -6.3016 0.0291044 0.00187458 0.999575 114 91 76
-6.71587 -0.957784 -6.31551 0.0380557 -0.0559623 0.997707 148 131 117
-6.71747 -0.960123 -6.3627 -0.10815 -0.065843 0.991952 179 169 158
-6.76695 -0.902674 -6.38943 0.0548105 0.00942221 0.998452 170 163 153
-6.7679 -0.902475 -6.38794 -0.148064 0.100108 0.983898 170 163 153
-6.85814 -0.816565 -6.38037 0.0831062 0.0389268 0.99578 165 160 149
-6.92405 -0.753579 -6.36111 0.205419 0.100395 0.973511 157 153 141
-6.64078 -1.00253 -6.28258 0.0116663 0.00386838 0.999924 116 89 72
-6.67975 -0.955064 -6.31226 0.0122607 -0.0405311 0.999103 157 140 127
-6.70767 -0.937905 -6.34189 -0.133116 -0.223904 0.965478 177 167 156
-6.73564 -0.904192 -6.37723 0.0267867 -0.0509607 0.998341 170 162 151
-6.80256 -0.848592 -6.3879 0.0762381 0.046893 0.995986 162 159 146
-6.84562 -0.805013 -6.36446 0.104374 0.0340449 0.993955 165 160 148
-6.89799 -0.751309 -6.36448 0.220466 0.127163 0.96707 155 152 141
-6.92706 -0.732146 -6.3745 0.23722 0.157284 0.958639 148 145 134
-6.62171 -0.98868 -6.3115 0.0376484 0.00508291 0.999278 116 92 77
-6.6423 -0.952955 -6.31076 0.034083 -0.00185125 0.999417 167 149 137
-6.68206 -0.928916 -6.32702 -0.0466733 -0.141704 0.988808 176 165 155
-6.70305 -0.912286 -6.35631 -0.113897 -0.119155 0.986321 170 162 151
-6.7386 -0.866778 -6.37361 0.091642 -0.0357479 0.99515 166 160 149
-6.75561 -0.874283 -6.38554 -0.146581 0.100874 0.984042 169 163 152
-6.74837 -0.880174 -6.39291 -0.243867 0.161027 0.956347 169 163 152
-6.79987 -0.830946 -6.36454 0.0632915 0.0487898 0.996802 166 161 149
-6.8232 -0.798836 -6.35805 0.0995949 0.0343084 0.994437 163 158 146
-6.87055 -0.748759 -6.36476 0.207218 0.103581 0.972796 150 147 136
-6.86938 -0.748995 -6.36651 0.211596 0.111352 0.970993 149 147 136
-6.89732 -0.730702 -6.37951 0.22797 0.140613 0.963461 145 144 132
-6.6604 -0.917514 -6.30903 -0.0381218 -0.147673 0.988301 176 163 153
-6.68146 -0.904493 -6.33989 -0.0721661 -0.125584 0.989455 169 161 150
-6.68897 -0.898119 -6.33263 -0.0624077 -0.147524 0.987088 169 161 150
-6.68707 -0.899102 -6.33409 -0.025717 -0.0879083 0.995797 169 161 150
-6.68966 -0.898747 -6.33305 -0.0853592 -0.162789 0.982962 169 161 150
-6.75394 -0.837554 -6.37598 0.0181448 0.0974878 0.995071 165 159 148
-6.75701 -0.836265 -6.37391 0.0537026 0.067712 0.996259 165 159 148
-6.80283 -0.791809 -6.34953 0.0856676 0.039505 0.99554 161 156 145
-6.7992 -0.794042 -6.35288 0.069313 0.0686832 0.995228 161 156 145
-6.83324 -0.772556 -6.36301 0.117252 0.0237707 0.992818 159 154 144
-6.8484 -0.743472 -6.36264 0.140271 0.00773943 0.990083 143 140 131
-6.87406 -0.725693 -6.37634 0.183968 0.0626731 0.980932 144 143 131
-6.62591 -0.912696 -6.30081 -0.0300799 -0.141708 0.989451 174 162 150
-6.69461 -0.874401 -6.29476 -0.0647632 -0.139992 0.988032 169 161 149
-6.72632 -0.834259 -6.37248 -0.0276688 0.120397 0.99234 162 156 146
-6.80282 -0.775026 -6.32386 0.036549 0.0685154 0.99698 160 154 144
-6.80049 -0.777031 -6.32622 0.0187695 0.097116 0.995096 160 154 144
-6.7963 -0.779987 -6.33123 0.0266376 0.0884006 0.995729 160 154 144
-6.80124 -0.771394 -6.36501 0.114023 0.0306711 0.993005 154 150 141
-6.85509 -0.718601 -6.36962 0.194156 0.0805254 0.97766 141 140 131
-6.8713 -0.716319 -6.37776 -0.0586362 0.152882 0.986503 140 141 129
-6.87015 -0.715445 -6.37807 -0.203994 0.170822 0.963953 140 141 129
-6.8912 -0.689773 -6.37604 -0.202321 0.205137 0.957593 127 129 117
-6.51049 -1.01096 -6.38282 -0.609238 -0.117905 0.784173 163 146 133
-6.66733 -0.866092 -6.28136 -0.0309554 -0.12147 0.992112 168 159 146
-6.69414 -0.83097 -6.31868 -0.870769 0.371133 0.322523 104 102 103
-6.82035 -0.741734 -6.36186 0.181378 0.0697071 0.98094 114 112 107
-6.84245 -0.708664 -6.35495 0.124475 -0.00356264 0.992216 134 134 129
-6.87164 -0.6862 -6.36766 -0.0458574 0.142889 0.988676 132 135 124
-6.89285 -0.663354 -6.3667 0.0381189 -0.18081 0.982779 73 76 65
-6.9049 -0.667622 -6.38061 -0.495377 0.352181 0.794085 34 38 28
-6.64142 -0.858058 -6.26785 -0.0374059 -0.150084 0.987965 166 158 144
-6.68963 -0.827692 -6.27467 -0.347738 0.138632 0.927286 162 158 151
-6.72183 -0.800769 -6.36575 -0.223645 -0.131432 0.965768 157 153 144
-6.721 -0.800362 -6.36628 -0.151886 -0.0225398 0.988141 157 153 143
-6.72242 -0.799794 -6.36522 -0.211366 -0.12276 0.969667 157 153 143
-6.77018 -0.757614 -6.33985 -0.165727 -0.0540469 0.98469 149 146 138
-6.76682 -0.757419 -6.34713 0.095746 0.607744 0.78834 145 142 135
-6.79276 -0.725289 -6.33407 -0.590627 0.36277 0.720804 108 108 108
-6.85476 -0.679285 -6.35614 0.0694704 -0.0255317 0.997257 137 139 130
-6.08946 -1.26881 -6.34963 -0.0594938 0.463886 0.883895 130 99 82
-6.46745 -0.965397 -6.37683 -0.679014 -0.145924 0.719477 174 162 150
-6.58858 -0.8667 -6.27676 -0.00287235 -0.00543196 0.999981 167 159 146
-6.65792 -0.809334 -6.33612 -0.349254 0.778922 0.520866 86 88 100
-6.68396 -0.806784 -6.349 -0.213904 0.78955 0.5752 143 139 143
-6.69147 -0.799861 -6.35673 -0.137346 -0.0552983 0.988978 156 152 148
-6.70737 -0.771349 -6.35816 -0.272947 0.0346391 0.961405 151 149 141
-6.74189 -0.742945 -6.33615 0.0101822 -0.0788689 0.996833 135 133 127
-6.81295 -0.705973 -6.35484 0.140148 -0.0128765 0.990047 124 125 124
-6.82515 -0.677631 -6.3567 0.114908 0.00155791 0.993375 132 133 124
-6.86934 -0.659513 -6.36262 0.00192909 -0.116942 0.993137 100 102 92
-6.8667 -0.653161 -6.35795 -0.0338423 0.159329 0.986645 94 96 85
-6.88918 -0.629706 -6.35477 0.10428 -0.0729634 0.991868 27 28 19
-6.88993 -0.643261 -6.38041 0.104532 -0.0708887 0.991992 24 28 19
-6.62531 -0.824708 -6.26309 -0.0674138 -0.0560342 0.99615 163 157 149
-6.63328 -0.816864 -6.30139 -0.0105866 -0.0831553 0.99648 73 76 82
-6.66558 -0.790657 -6.35283 0.171946 0.600336 0.781045 149 146 147
-6.76781 -0.709308 -6.34508 -0.282522 0.250267 0.926039 101 101 104
-6.77021 -0.709317 -6.36603 0.134456 -0.0225496 0.990663 111 111 114
-6.83746 -0.654105 -6.35898 -0.238405 0.212385 0.947658 71 72 60
-4.06297 -2.62852 -3.10855 -0.768284 -0.448031 -0.457173 227 232 229
-6.54215 -0.870638 -6.27959 -0.000594199 -0.000774104 1 171 160 147
-6.59948 -0.812649 -6.2947 -0.0936877 -0.0525658 0.994213 76 78 83
-6.61604 -0.814099 -6.29843 -0.0983101 0.233569 0.967357 73 76 83
-6.6322 -0.796491 -6.34561 -0.38205 0.829617 0.407153 112 114 125
-6.70586 -0.745147 -6.34213 0.0612135 0.334896 0.940265 143 142 134
-6.73905 -0.711379 -6.34132 -0.291299 0.289426 0.911799 106 106 105
-6.73519 -0.713971 -6.33948 -0.138777 0.128718 0.981923 109 109 107
-6.79438 -0.675666 -6.35729 0.134196 -0.02299 0.990688 141 142 135
-6.8612 -0.627659 -6.35173 0.0404897 -0.140167 0.9893 34 35 25
-6.86791 -0.603222 -6.35614 0.0796579 -0.0875586 0.992969 28 29 24
-6.87415 -0.613688 -6.377 0.105835 -0.0638011 0.992335 29 31 25
-6.87772 -0.612821 -6.37598 0.112323 -0.0598584 0.991867 29 31 25
-6.8776 -0.612869 -6.37608 0.1124 -0.0597311 0.991866 29 31 25
-6.8776 -0.612869 -6.37608 0.1124 -0.0597311 0.991866 29 31 25
-4.10323 -2.52487 -2.87716 -0.934829 -0.353982 -0.0281441 96 91 86
-4.01154 -2.61339 -3.15338 -0.772745 -0.453938 -0.443628 188 190 187
-6.55514 -0.813317 -6.29568 -0.039355 -0.0665323 0.997008 79 78 81
-6.58374 -0.795751 -6.31547 -0.111731 0.26434 0.957936 97 102 116
-6.60717 -0.795138 -6.3299 -0.64784 0.564043 0.512013 96 103 118
-6.69951 -0.715997 -6.3453 -0.160677 0.0804295 0.983725 117 116 109
-6.7054 -0.720212 -6.34883 -0.0641507 -0.225323 0.97217 112 112 106
-6.75222 -0.689164 -6.34865 -0.347765 -0.0484238 0.93633 124 123 122
-6.75771 -0.674379 -6.35117 -0.0586069 0.0729446 0.995613 145 144 139
-6.82779 -0.628619 -6.35499 0.147773 0.00121037 0.989021 32 33 21
-6.53465 -0.799388 -6.27887 -0.216984 0.974391 0.0590005 64 61 66
-6.55662 -0.791532 -6.33695 -0.514957 0.290373 0.806538 117 123 134
-6.61043 -0.753297 -6.35304 -0.107901 -0.295943 0.949092 144 143 142
-6.71304 -0.692759 -6.34679 -0.33151 -0.140585 0.932918 121 120 114
-6.74762 -0.670085 -6.33556 -0.114542 0.0638075 0.991367 142 140 134
-6.75306 -0.64874 -6.34578 -0.201571 0.217048 0.955123 143 141 130
-6.77542 -0.649946 -6.35363 -0.125976 -0.173603 0.976725 144 145 131
-6.79914 -0.626203 -6.35371 -0.0240672 -0.179503 0.983463 83 83 71
-6.84403 -0.599761 -6.35095 0.0783105 -0.0939591 0.992491 24 24 18
-6.85853 -0.585189 -6.37507 0.11783 -0.0506199 0.991743 26 27 23
-4.00071 -2.48701 -2.38851 -0.757548 -0.509467 -0.408122 56 54 58
-4.00071 -2.48701 -2.38851 -0.757548 -0.509467 -0.408122 56 54 58
-4.04436 -2.46835 -3.01168 -0.70093 -0.484907 -0.523032 102 86 80
-6.53146 -0.789478 -6.32806 -0.170664 0.288599 0.942117 130 133 142
-6.6341 -0.716763 -6.33879 -0.129267 -0.317922 0.939263 151 149 140
-6.69974 -0.665473 -6.31883 0.0563881 -0.0650983 0.996284 147 144 130
-6.70762 -0.672311 -6.33973 -0.26666 0.148093 0.952345 141 138 128
-6.7346 -0.644801 -6.33394 -0.128611 0.05314 0.99027 145 142 131
-6.76592 -0.626382 -6.35222 -0.0566196 -0.156355 0.986077 114 114 100
-6.8158 -0.597748 -6.3491 0.079385 -0.10135 0.991679 26 26 20
-6.81816 -0.581692 -6.35587 0.157685 0.0171223 0.987341 23 23 18
-6.85401 -0.573877 -6.3524 0.0823345 -0.105767 0.990977 23 23 19
-4.07023 -2.33467 -2.45996 -0.965686 -0.175711 0.191249 69 65 64
-4.08112 -2.35001 -2.49587 -0.963606 -0.220213 0.151559 83 73 70
-6.45627 -0.802994 -6.32504 -0.588913 0.423784 0.688178 93 94 107
-6.47793 -0.804069 -6.34094 -0.406064 0.401582 0.82088 116 119 130
-6.49976 -0.776387 -6.34565 -0.597001 0.0313329 0.801628 97 103 113
-6.52806 -0.763051 -6.36248 -0.18472 -0.418932 0.88903 46 52 65
-6.57437 -0.724046 -6.34426 -0.166635 -0.42244 0.890942 131 134 139
-6.57576 -0.722858 -6.34342 -0.164287 -0.418563 0.893205 132 135 139
-6.65225 -0.684124 -6.33209 -0.100339 -0.285682 0.953057 153 149 134
-6.69759 -0.648486 -6.3366 -0.27749 0.154632 0.948203 147 143 131
-6.73216 -0.626401 -6.35046 -0.365806 -0.00429161 0.930681 132 129 116
-6.76596 -0.612006 -6.3641 0.119326 -0.0481043 0.991689 36 36 28
-6.85365 -0.551024 -6.35374 0.0707995 -0.0816011 0.994147 26 26 20
-6.67864 -0.647334 -6.32753 0.0389121 -0.092684 0.994935 148 144 130
-6.71436 -0.622436 -6.33788 -0.141546 0.0479548 0.98877 146 142 130
-6.75049 -0.604997 -6.35152 0.078843 -0.0728454 0.994222 35 33 23
-6.78724 -0.58063 -6.35669 0.0966701 -0.0771491 0.992322 30 30 26
-6.82636 -0.550448 -6.35255 0.0541468 -0.119331 0.991377 23 24 19
-6.46218 -0.77143 -6.31325 -0.647202 0.37279 0.664949 116 121 135
-6.50103 -0.728381 -6.3495 -0.142507 -0.358533 0.922576 43 50 72
-6.57977 -0.6954 -6.3472 -0.141298 -0.384543 0.912229 146 144 139
-6.62967 -0.6539 -6.33744 0.000962473 -0.170469 0.985363 146 142 127
-6.68604 -0.622312 -6.33352 -0.141466 0.0526403 0.988543 145 141 130
-6.72658 -0.598377 -6.34249 -0.000625268 -0.051518 0.998672 46 43 33
-6.75973 -0.578213 -6.35407 0.0877475 -0.0759475 0.993243 29 30 24
-6.8057 -0.546998 -6.34567 0.0903953 -0.0767673 0.992943 25 26 21
-6.84814 -0.520754 -6.34382 0.0734512 -0.0823914 0.99389 47 46 40
-6.43596 -0.753377 -6.32277 -0.603673 -0.161075 0.78079 75 84 102
-6.47245 -0.724832 -6.33455 -0.215514 -0.261121 0.940941 34 43 64
-6.47177 -0.739332 -6.33228 -0.116612 -0.150465 0.981714 48 57 74
-6.54519 -0.691533 -6.33297 -0.138476 -0.379388 0.914817 113 115 129
-6.58999 -0.656468 -6.33808 0.0429656 -0.120903 0.991734 140 137 124
-6.59414 -0.663512 -6.34335 -0.0246027 -0.150085 0.988367 141 138 125
-6.64986 -0.623456 -6.33332 -0.0793979 -0.0894526 0.992821 137 134 122
-6.67057 -0.597609 -6.33351 -0.130127 0.0530953 0.990075 43 41 32
-6.6941 -0.599434 -6.34169 -0.0105475 -0.0659767 0.997765 46 43 33
-6.72465 -0.578061 -6.35627 0.0712966 -0.116836 0.990589 37 37 29
-6.76181 -0.540926 -6.33335 0.0956409 -0.0705095 0.992916 39 39 33
-6.77562 -0.546667 -6.34761 0.0289019 -0.125472 0.991676 30 31 25
-6.8173 -0.520445 -6.34585 0.0885043 -0.0745017 0.993286 37 37 32
11.3281 -11.0049 12.5288 -0.113346 0.146023 -0.982767 108 127 126
11.2804 -10.9727 12.485 -0.132481 0.246434 -0.960062 102 119 118
12.0351 -11.4299 12.4548 -0.963934 -0.0471178 -0.261936 156 183 184
-6.4036 -0.73839 -6.31604 -0.132875 -0.0410369 0.990283 47 61 81
-6.44759 -0.721444 -6.32042 -0.205328 -0.258083 0.944052 56 68 87
-6.49833 -0.690596 -6.32669 -0.209387 -0.258439 0.943062 38 46 69
-6.55184 -0.661992 -6.33478 -0.0790798 -0.264866 0.961037 136 135 132
-6.6053 -0.627159 -6.33776 -0.099659 -0.126016 0.98701 94 91 78
-6.67602 -0.575387 -6.34367 -0.239519 0.188267 0.952463 28 28 22
-6.70459 -0.572874 -6.34484 0.0200762 -0.142398 0.989606 33 33 26
-6.73704 -0.551489 -6.34412 0.049627 -0.126099 0.990776 46 47 41
-6.77542 -0.512821 -6.33073 0.0510023 -0.139473 0.988912 35 34 28
-6.80117 -0.515149 -6.33505 0.0881121 -0.0761877 0.993193 32 32 27
11.7805 -11.0769 12.6107 -0.811903 -0.26237 -0.521513 109 132 121
12.357 -11.441 12.3637 -0.14946 0.840149 -0.521355 215 246 248
-4.06138 -2.03204 -2.45537 -0.877789 0.221025 0.425011 74 70 68
-6.47102 -0.68656 -6.31106 -0.2796 -0.363078 0.888819 30 39 59
-6.48105 -0.662532 -6.29215 -0.1803 -0.25555 0.949835 59 65 83
-6.50283 -0.650369 -6.2982 -0.193265 -0.284349 0.939039 110 113 125
-6.5284 -0.654794 -6.31491 -0.11564 -0.345886 0.931123 121 122 129
-6.57454 -0.625655 -6.33089 -0.103225 -0.136639 0.985228 144 140 126
-6.65468 -0.574014 -6.33414 -0.0153182 -0.0957269 0.99529 34 34 29
-6.69538 -0.540239 -6.3343 0.0211683 -0.130799 0.991183 34 34 29
-6.71422 -0.545447 -6.34642 0.00703731 -0.133676 0.991 41 42 36
11.7972 -10.8065 12.6157 -0.735745 0.0213804 -0.676921 123 147 124
12.0436 -11.0331 12.4663 -0.955758 -0.00343138 -0.294134 155 183 179
12.5179 -11.1029 12.5526 -0.021916 0.224886 -0.974138 203 238 242
-6.36156 -0.708923 -6.32209 -0.332987 -0.112166 0.936236 75 82 97
-6.40334 -0.696653 -6.31786 -0.175186 -0.0143742 0.98443 44 52 71
-6.47504 -0.647041 -6.28695 -0.123525 -0.18761 0.974445 91 93 107
-6.53658 -0.624397 -6.31536 -0.259994 -0.475336 0.840511 147 144 138
-6.58657 -0.597405 -6.33296 -0.23095 -0.0519816 0.971576 39 37 28
-6.63734 -0.567557 -6.3368 -0.0910739 -0.211332 0.973162 34 35 30
-6.67548 -0.548794 -6.33411 0.0896793 -0.0840612 0.992417 29 29 24
-6.73116 -0.518303 -6.33139 0.0499948 -0.144299 0.98827 43 41 35
-6.74242 -0.512514 -6.3318 0.0542589 -0.145232 0.987909 39 38 31
-6.77449 -0.492668 -6.33192 -0.468756 0.0942313 0.878287 53 51 44
-6.79212 -0.476494 -6.33826 -0.38524 0.103245 0.917023 155 154 145
11.8759 -10.3922 12.5771 -0.503278 0.17293 -0.846645 81 102 95
11.7073 -10.5581 12.4582 -0.192336 0.224079 -0.955403 113 134 112
12.0683 -10.7109 12.4836 -0.88857 0.277366 -0.365393 162 191 185
12.214 -10.5847 12.2192 -0.738525 -0.264483 -0.620185 207 241 245
