ply
format ascii 1.0
element vertex 722
property float x
property float y
property float z
property float nx
property float ny
property float nz
property uchar diffuse_red
property uchar diffuse_green
property uchar diffuse_blue
end_header
1.54468 -0.263902 -1.68013 -0.0907721 0.30129 -0.949202 157 134 122
-2.96883 -0.963563 -2.23286 0.364943 -0.449065 -0.815571 133 138 133
1.57637 -0.246267 -1.6814 -0.21558 0.350207 -0.911526 162 146 133
1.62537 -0.232577 -1.67826 0.167244 -0.159175 -0.972981 162 152 140
1.66011 -0.231164 -1.67983 0.399949 0.26654 -0.876925 67 59 48
-2.02614 -0.75901 -2.14381 0.223682 -0.35521 -0.90763 147 152 149
-0.0622592 -0.451844 -1.98104 0.398335 -0.255773 -0.880857 69 63 56
1.53113 -0.233952 -1.69304 -0.716577 -0.0271427 -0.69698 163 142 129
1.60942 -0.202482 -1.68998 0.219294 -0.000304848 -0.975659 167 155 143
1.64023 -0.200193 -1.68413 0.49537 -0.0324715 -0.868075 140 131 119
-2.50872 -0.804919 -2.19622 0.244884 -0.209406 -0.946668 126 129 126
-2.17116 -0.773203 -2.14228 0.17157 -0.233364 -0.957134 150 159 155
1.50091 -0.209365 -1.67056 -0.544339 0.0303702 -0.838315 165 148 134
1.51824 -0.211019 -1.68818 -0.593473 0.000807479 -0.804853 163 146 132
1.55293 -0.213705 -1.64814 -0.485867 0.309844 -0.81727 158 142 129
1.57663 -0.202416 -1.69836 0.0864579 0.145188 -0.985619 159 145 132
-3.66179 -0.926776 -2.3622 0.223779 0.19882 -0.954146 84 82 71
-0.677029 -0.477731 -1.99757 0.00633185 -0.41586 -0.909406 125 94 82
1.52662 -0.185581 -1.66847 -0.745046 0.233382 -0.624851 157 144 129
1.62303 -0.168202 -1.67829 0.217271 -0.0424247 -0.975189 168 157 144
1.65709 -0.167411 -1.67056 0.515354 0.0101793 -0.856917 79 70 60
1.65607 -0.168343 -1.66877 0.233766 -0.00183368 -0.972291 83 74 64
-2.84343 -0.732385 -2.2266 0.278154 -0.350483 -0.894311 58 62 52
-1.4944 -0.565043 -2.06876 0.101822 -0.326284 -0.939772 79 67 64
1.49301 -0.158778 -1.68123 -0.317424 -0.139604 -0.937951 161 150 133
1.02109 -0.184663 -1.66071 0.337856 -0.335095 -0.879526 191 170 159
1.47223 -0.132399 -1.5713 -0.227187 -0.220398 -0.948584 157 144 126
1.51986 -0.127259 -1.66844 -0.43377 -0.611343 -0.661894 158 143 124
-2.54152 -0.590552 -2.18766 0.15385 -0.0483726 -0.98691 118 118 109
-0.277006 -0.293197 -1.9998 0.195113 -0.727717 -0.65754 126 108 91
0.870689 -0.186691 -1.76275 0.162881 -0.801737 -0.575055 164 130 120
1.23841 -0.131439 -1.79326 0.575745 -0.64472 -0.502845 178 165 150
1.44049 -0.132433 -1.55349 -0.197945 0.272298 -0.941633 159 145 126
-3.20536 -0.57515 -2.28034 0.309066 -0.433811 -0.846337 41 48 48
0.997213 -0.132619 -1.76089 -0.46913 -0.456517 -0.755982 182 171 156
1.30376 -0.112092 -1.71045 0.518755 -0.457459 -0.722236 166 154 137
1.49514 -0.0987993 -1.62244 -0.463281 0.385171 -0.798132 123 104 83
0.838313 -0.138103 -1.74339 0.799791 0.551076 -0.238013 182 170 158
1.2612 -0.0821442 -1.74326 0.645455 -0.413261 -0.642342 145 131 113
1.26094 -0.0822423 -1.74163 0.630816 -0.440253 -0.638943 142 128 110
1.5231 -0.0642504 -1.6372 -0.404823 0.385522 -0.829151 108 84 62
-3.25871 -0.517624 -2.30018 0.325807 -0.487695 -0.80994 121 133 132
-3.20679 -0.479788 -2.2944 0.195671 0.128851 -0.972168 124 137 135
0.787529 -0.121146 -1.81163 0.833131 -0.468328 -0.294214 181 166 153
0.805059 -0.124753 -1.72067 0.853399 0.470777 -0.223785 179 168 156
1.05854 -0.080102 -2.10552 0.12386 -0.823259 -0.553989 181 170 155
-2.03537 -0.349557 -2.11029 0.0838241 -0.100888 -0.99136 93 100 92
0.979876 -0.0702051 -1.93043 -0.23279 -0.419675 -0.877315 178 167 153
1.51204 -0.0317399 -1.6238 -0.551497 0.3065 -0.775828 116 87 65
-2.40838 -0.329781 -2.16791 0.125064 0.000652343 -0.992149 138 146 139
0.0155838 -0.121245 -1.95906 -0.304245 -0.164436 -0.938294 70 60 48
1.00022 -0.0402654 -2.02413 -0.209848 -0.657961 -0.723223 165 153 139
-3.08111 -0.351305 -2.2619 0.180892 0.185328 -0.965884 127 139 134
1.13789 -0.00746492 -2.28121 0.170477 -0.840371 -0.514504 68 48 33
-0.729895 -0.125259 -1.98019 0.609386 0.597383 -0.521328 148 150 139
0.593455 -0.0423837 -1.94682 0.215681 -0.841923 -0.494618 136 130 121
1.1274 0.00891248 -1.98562 0.35458 -0.790008 -0.500161 101 77 58
1.1477 0.0120494 -1.85696 0.483636 -0.752635 -0.446808 107 82 62
-2.88111 -0.240368 -2.2365 0.190629 -0.0532153 -0.980219 135 144 140
-2.43179 -0.229615 -2.15816 0.275349 -0.599877 -0.75122 107 113 106
-1.19217 -0.140907 -1.99516 -0.0656203 -0.0573804 -0.996194 94 98 95
-1.21041 -0.0926089 -2.0171 -0.03986 -0.185063 -0.981918 153 157 153
-0.563019 -0.0756365 -1.97918 0.268731 0.573588 -0.773809 94 83 68
-2.23596 -0.108616 -2.11288 0.102624 -0.114613 -0.988095 55 62 56
-2.91959 -0.134899 -2.24023 0.17286 0.101122 -0.979742 92 96 82
-0.798745 -0.026192 -2.02937 0.173935 -0.76284 -0.622754 70 65 51
-0.205555 0.0163498 -1.97868 0.469272 0.402556 -0.78596 108 86 62
-1.42677 0.00901352 -1.99822 -0.00537534 -0.316655 -0.948526 147 152 141
-0.627419 0.0575388 -2.08216 0.484915 -0.691448 -0.535498 94 74 55
-0.575814 0.0475297 -1.99685 0.893812 -0.286457 -0.345026 100 75 54
-0.676006 0.0658027 -2.18248 0.241929 -0.830198 -0.502236 86 71 51
-0.116123 0.0928267 -1.90074 0.134668 0.724579 -0.675907 85 87 66
-3.03632 0.0318198 -2.29739 0.332681 -0.731244 -0.595487 72 73 62
-2.02344 0.0606169 -2.20122 0.323532 -0.811016 -0.487421 61 58 42
-1.29627 0.0825496 -2.08714 -0.0208913 -0.186042 -0.98232 67 67 49
-1.955 -6.22753 -1.855 0.914084 0.261693 0.309787 127 120 106
-2.17781 -6.68587 -1.72828 0.869861 0.401775 0.286215 121 117 103
-2.00144 -6.33498 -1.78905 0.911703 0.266914 0.312339 127 120 107
-2.10087 -6.46029 -1.76294 0.902415 0.282801 0.325069 122 117 104
-1.60617 -5.59334 -1.97937 0.800044 0.57362 0.175755 125 120 106
-1.88277 -5.9574 -1.84636 0.918698 0.267186 0.29087 123 118 104
-1.78041 -5.74641 -1.89937 0.922895 0.293775 0.248919 124 118 104
1.50944 -1.90668 -1.64047 -0.709213 -0.00746529 -0.704954 114 91 87
0.211329 -2.63042 -1.89788 0.846161 0.132802 -0.516115 198 175 159
0.399324 -2.43573 -1.85767 0.36234 0.00964665 -0.931996 216 199 184
-2.11855 -2.69424 -3.85111 0.882987 0.210928 0.419336 125 128 115
1.07489 -1.78049 -1.7207 0.584711 0.174689 -0.79221 66 38 36
1.29192 -1.56306 -1.72372 0.236143 -0.0387163 -0.970947 97 85 74
-0.0622398 -2.46008 -1.93244 0.175426 0.473265 -0.863276 127 113 106
0.896832 -1.77128 -1.77008 0.256959 0.0709254 -0.963816 167 135 132
0.0226599 -2.32005 -1.91694 0.65678 0.0512269 -0.75234 183 151 137
-1.01657 -2.87813 -2.10789 0.994025 0.0535632 0.0951074 103 97 88
0.727226 -1.60613 -1.80294 -0.560887 0.278583 -0.779613 210 187 178
1.36508 -1.22844 -1.70412 0.357174 0.179239 -0.916679 117 96 89
0.688676 -1.61352 -1.80199 0.237553 -0.200188 -0.950523 210 188 179
-0.874639 -2.47524 -2.05923 0.382378 -0.0473422 -0.922792 144 122 111
0.413174 -1.44567 -1.76097 0.323453 0.929772 -0.175789 157 119 102
1.45141 -0.864785 -1.69576 -0.428728 0.185915 -0.884098 87 81 85
1.06418 -1.04932 -1.70851 0.36166 -0.305039 -0.880996 152 121 106
0.441331 -1.34616 -1.67437 -0.434074 0.267135 -0.860359 163 121 104
0.175236 -1.22314 -1.85474 -0.418199 0.0647007 -0.906048 139 101 83
-0.387104 -1.36625 -2.0064 -0.383139 0.617752 -0.686722 126 91 72
-1.58865 -1.84572 -2.09018 -0.0192946 0.257039 -0.966208 39 40 48
0.940697 -0.737937 -1.77042 -0.00203812 0.399946 -0.916536 39 30 23
0.894881 -0.744181 -1.77803 -0.00217766 -0.260444 -0.965487 84 78 75
0.867288 -0.642362 -1.73169 0.84893 -0.147974 -0.507367 38 31 32
-0.686565 -0.933846 -2.00841 0.166806 -0.28902 -0.942679 161 160 155
-0.657038 -0.938228 -2.00411 0.196735 -0.323386 -0.92559 165 162 156
0.130157 -0.695767 -1.98124 0.139307 0.311018 -0.940139 103 68 45
0.709326 -0.502833 -1.77328 -0.247165 0.0140789 -0.968871 160 145 137
-1.46321 -1.00409 -2.06699 0.313789 -0.394181 -0.863804 44 52 81
-0.552967 -0.630248 -1.95506 0.313792 -0.10259 -0.943933 51 27 14
-1.17374 -0.705903 -2.01944 -0.0960202 0.40083 -0.911107 36 42 56
1.12783 -0.196204 -1.63058 0.322886 -0.284655 -0.902616 189 168 158
0.989288 -0.146959 -1.74929 -0.318158 -0.67023 -0.670498 186 170 157
1.02564 -0.101667 -1.91137 0.0540959 -0.699516 -0.712567 179 169 155
1.02564 -0.101667 -1.91137 0.0540959 -0.699516 -0.712567 179 169 154
1.02564 -0.101667 -1.91137 0.0540959 -0.699516 -0.712567 179 169 154
-0.617337 -0.290227 -1.96821 0.288829 0.303615 -0.907962 31 22 14
-1.4862 -0.317707 -2.06478 0.0689578 -0.212162 -0.974798 70 74 64
1.06304 0.00785284 -2.34964 -0.616036 -0.2608 -0.743292 70 51 35
0.187419 0.0344852 -1.88145 -0.419243 -0.319035 -0.849972 87 70 46
0.114832 -7.43353 -0.402776 0.236242 0.965102 0.112998 159 146 132
-7.59601 -13.7391 -0.40381 -0.448311 0.843261 -0.296527 117 117 101
-2.47584 -7.38281 -1.6332 0.913335 0.261215 0.312387 125 120 107
-1.4529 -7.79064 -0.878096 0.793053 0.58187 0.18026 170 159 145
-1.45858 -7.80556 -0.870862 0.767192 0.616028 0.178678 170 159 145
-1.06219 -6.66086 -1.35858 0.90855 0.36106 0.210174 163 153 138
-2.61524 -12.1043 1.14336 -0.336523 0.309031 -0.889524 213 197 184
-2.02953 -10.7566 0.617092 -0.336737 0.301268 -0.892102 225 213 199
-2.09086 -10.9119 0.671241 -0.43671 0.364744 -0.822342 224 212 198
-2.67124 -7.8179 -1.34327 0.906655 0.28463 0.311387 126 121 107
-1.51204 -7.08854 -1.24289 -0.0211658 0.895034 0.445496 144 137 122
-1.74354 -7.68118 -0.998913 0.282842 0.791208 0.542209 146 139 124
-1.4603 -7.78903 -0.85008 0.786568 0.557771 0.264955 169 159 144
-2.0602 -10.5999 0.567984 -0.327144 0.296769 -0.897165 213 198 184
-0.0315495 -8.06069 0.0690657 0.727277 0.68633 0.00428069 157 145 131
-5.297 -13.5879 1.10611 0.832064 0.526915 0.173291 134 127 114
0.630663 -4.36564 -1.80001 0.0687626 0.997618 -0.00552592 182 166 154
-2.3013 -6.7255 -1.68671 0.90156 0.271916 0.336529 125 118 105
-2.23189 -6.61053 -1.74536 0.89958 0.273326 0.34066 120 116 103
0.59477 -4.51662 -1.6146 -0.449652 0.892756 -0.028295 172 156 143
0.714163 -4.55546 -1.58433 0.188005 0.952824 0.238288 155 140 126
-1.96051 -5.96281 -1.92795 -0.14597 0.373177 -0.916205 120 115 102
0.812199 -3.9955 -1.77013 -0.721773 0.423591 -0.54737 157 142 127
0.977914 -4.57276 -1.33603 0.0392774 0.981308 0.188396 143 132 117
3.45972 -2.70392 -1.28845 -0.531811 0.048341 -0.845482 143 125 112
-1.87657 -5.92396 -1.83066 0.919689 0.267688 0.287255 122 117 103
0.896901 -4.54272 -1.30768 0.0468081 0.975829 0.213462 144 133 119
3.37395 -2.698 -1.32966 0.397933 0.806944 -0.436452 148 139 127
3.55558 -2.58493 -1.27364 -0.123523 0.395255 -0.910228 129 114 94
-2.33895 -6.48339 -1.54052 0.928647 0.299713 0.218604 123 116 103
-1.57441 -5.2473 -2.00361 0.900772 0.423724 0.095222 122 116 102
0.811186 -3.89202 -1.73482 -0.725141 0.490791 -0.483006 157 143 129
0.906581 -3.7025 -1.79951 -0.724193 0.438963 -0.531842 152 139 124
3.13701 -2.65536 -1.41607 0.0416503 0.444887 -0.894618 150 142 132
3.4785 -2.56908 -1.29492 -0.0409317 0.409275 -0.911493 142 129 111
3.07988 -2.6744 -1.39416 0.22747 0.156654 -0.961102 151 143 134
3.40452 -2.46907 -1.35571 0.27553 -0.0184021 -0.961116 155 127 108
3.4993 -2.48363 -1.315 0.281981 0.0627165 -0.957368 144 115 95
0.788605 -3.87939 -1.60011 -0.701582 0.38053 -0.602478 157 142 129
3.12982 -2.56163 -1.41018 -0.134915 0.238103 -0.961824 177 163 154
3.15949 -2.49242 -1.42163 -0.125249 0.176968 -0.976215 158 148 141
3.39284 -2.44453 -1.35418 0.228506 0.546712 -0.805538 152 124 105
3.45396 -2.40671 -1.31854 0.211429 0.101339 -0.972126 152 119 98
3.09937 -2.48839 -1.41659 0.206851 0.720021 -0.662406 125 114 108
3.18584 -2.4434 -1.40824 -0.872701 -0.0706525 -0.483116 181 171 165
3.20905 -2.38075 -1.43059 -0.680829 0.0699673 -0.729093 177 161 153
3.31656 -2.33973 -1.3994 0.494348 0.4229 -0.759458 152 120 102
2.72123 -2.57787 -1.48008 -0.650698 0.562573 -0.510004 181 158 147
3.01938 -2.47052 -1.3937 0.131871 0.432936 -0.891727 121 110 104
3.12948 -2.44799 -1.39073 -0.546247 0.204532 -0.812269 126 118 113
3.24816 -2.33535 -1.40386 -0.0410279 0.240085 -0.969885 152 128 113
3.39607 -2.32397 -1.31947 -0.314438 0.799296 -0.512108 145 112 92
2.12468 -2.74595 -1.60748 0.727084 0.236464 -0.644541 106 100 88
2.21 -2.68861 -1.59646 0.684826 0.192824 -0.702732 100 87 77
2.21125 -2.69161 -1.59317 0.690341 0.200788 -0.695063 99 87 76
2.35569 -2.62486 -1.58185 -0.0199466 0.361974 -0.931975 147 127 114
2.7154 -2.52884 -1.46859 0.085222 0.944203 -0.318146 147 129 120
3.07022 -2.45068 -1.37387 -0.301657 0.52008 -0.799074 144 135 130
3.09905 -2.38813 -1.38764 -0.18597 0.263486 -0.946568 121 114 110
3.21233 -2.27367 -1.4009 -0.0340365 0.239909 -0.970199 158 139 126
3.27315 -2.26645 -1.41547 -0.0763131 0.163662 -0.983561 150 120 101
-5.92651 -8.24803 -1.25964 0.949624 -0.219071 -0.224104 121 122 109
0.72559 -4.07462 -1.24538 -0.6888 0.358885 -0.629886 153 137 122
1.9505 -2.69927 -1.67235 -0.739881 0.635499 -0.220719 79 74 65
1.99723 -2.70172 -1.63633 -0.346061 0.857105 -0.381593 84 77 67
2.06947 -2.75448 -1.60179 0.77794 0.310765 -0.546108 111 102 90
2.09743 -2.71235 -1.57773 0.0293902 0.432506 -0.901152 100 90 78
2.15243 -2.68471 -1.60661 0.680784 0.168036 -0.71295 96 84 73
2.23685 -2.63548 -1.583 0.0717278 0.369912 -0.926294 152 130 117
2.23253 -2.63564 -1.58407 0.0454946 0.36216 -0.931005 152 130 117
2.29375 -2.63165 -1.57934 0.147722 0.300008 -0.942429 151 128 116
2.40335 -2.60368 -1.51381 0.161758 0.214988 -0.963127 174 147 135
2.63084 -2.52984 -1.48926 0.255473 -0.0250518 -0.966492 165 145 134
2.7535 -2.46086 -1.44053 0.261093 0.411131 -0.873385 101 91 85
2.81863 -2.46655 -1.41321 0.283034 0.417111 -0.863661 110 102 94
3.05987 -2.30302 -1.43493 0.254833 0.436237 -0.862993 104 99 94
3.13092 -2.28781 -1.42343 0.185592 -0.0475013 -0.981478 98 91 86
3.14363 -2.25065 -1.40872 0.29505 0.599709 -0.743838 83 76 71
3.20727 -2.25131 -1.40424 -0.728102 0.372606 -0.575355 152 135 122
1.95409 -2.70176 -1.6018 0.015905 0.826759 -0.562332 108 94 83
2.03948 -2.70313 -1.58792 0.19234 0.838382 -0.510021 108 95 83
2.12454 -2.66406 -1.55812 0.0696749 0.383189 -0.921039 151 129 117
2.17958 -2.63669 -1.58702 0.0806247 0.373066 -0.924295 154 131 118
2.20653 -2.59039 -1.56559 0.088771 0.373537 -0.923358 178 149 137
2.26239 -2.58767 -1.55735 0.180956 0.459769 -0.869407 181 152 140
2.32918 -2.60624 -1.52718 0.0933969 0.232927 -0.967999 174 146 134
2.3639 -2.53131 -1.52679 0.219244 0.0623497 -0.973676 202 177 168
2.69135 -2.43305 -1.46907 0.334671 -0.0619894 -0.940294 111 97 92
2.89168 -2.27284 -1.47653 -0.489413 -0.245325 -0.836833 112 104 95
2.97512 -2.30118 -1.44774 -0.248946 -0.0919546 -0.964142 116 110 102
2.99417 -2.2301 -1.46031 0.0979602 0.38038 -0.919628 89 83 78
3.16471 -2.18114 -1.41882 0.0778938 0.286605 -0.954877 131 119 111
1.6683 -2.79796 -1.62648 0.774085 0.143222 -0.616669 78 71 61
1.76286 -2.72698 -1.61653 -0.0790729 0.391414 -0.916811 80 68 57
1.90479 -2.64402 -1.61895 0.601395 0.0154249 -0.798803 146 123 110
2.00046 -2.65764 -1.57759 0.113561 -0.0971836 -0.988766 153 130 117
2.06483 -2.65174 -1.57376 0.137456 0.190436 -0.972029 153 129 117
2.08804 -2.58149 -1.57514 0.233395 0.453312 -0.860253 186 156 145
2.82789 -2.2587 -1.47716 0.195495 0.203439 -0.959372 109 99 91
2.93367 -2.23206 -1.46349 0.23218 0.543173 -0.80688 104 97 90
3.0335 -2.1684 -1.44945 0.0921043 0.0149645 -0.995637 108 106 102
3.09314 -2.16502 -1.45173 0.0722764 0.31233 -0.94722 108 105 101
3.27709 -2.07578 -1.39223 0.300823 0.0568197 -0.951986 151 118 97
1.84044 -2.65616 -1.6159 0.508813 -0.0565614 -0.859017 139 118 106
2.38285 -2.42251 -1.53227 0.380475 0.0351575 -0.924123 129 106 102
2.51116 -2.3137 -1.5502 0.120117 0.0957806 -0.988129 119 102 95
2.96246 -2.18313 -1.43908 0.0761571 0.930386 -0.358584 112 109 104
2.99039 -2.10642 -1.46412 -0.174245 0.0763265 -0.98174 108 106 104
3.05671 -2.10536 -1.45319 0.055671 0.315866 -0.947169 113 111 109
2.0044 -2.5355 -1.56282 0.025651 -0.194044 -0.980657 186 157 149
2.00886 -2.51287 -1.57954 0.0502164 -0.150677 -0.987307 171 141 134
2.54343 -2.27812 -1.50657 0.235812 0.0532388 -0.970339 106 89 81
2.61266 -2.26516 -1.51412 0.0978744 -0.122063 -0.987685 108 94 86
2.79188 -2.20416 -1.47275 0.225957 0.342426 -0.911969 104 93 85
2.88922 -2.08912 -1.48236 -0.0176704 0.215123 -0.976427 117 112 109
3.092 -2.05486 -1.42203 -0.149963 0.391667 -0.907804 86 80 80
3.23887 -2.00749 -1.37897 0.466924 0.183368 -0.865077 156 130 113
1.02 -2.72988 -1.87212 0.505146 0.485903 -0.71325 122 109 97
1.28308 -2.68705 -1.7172 0.317262 -0.0383478 -0.947562 111 92 80
1.38182 -2.89562 -1.48315 -0.673927 0.155491 -0.72225 85 72 61
2.05094 -2.45529 -1.58402 0.038017 -0.232451 -0.971865 129 100 94
2.42124 -2.27762 -1.52539 -0.00730374 0.0439971 -0.999005 115 96 89
2.48076 -2.2732 -1.52138 0.22066 0.0938959 -0.970821 132 113 106
2.57269 -2.20966 -1.50816 -0.00471061 0.0909657 -0.995843 94 77 70
2.8242 -2.09276 -1.48533 -0.0663774 0.0942344 -0.993335 126 117 112
2.95504 -2.04907 -1.45838 -0.149321 0.100931 -0.983624 120 115 115
3.02307 -2.05127 -1.44149 0.184747 0.194158 -0.963417 111 108 108
3.1429 -2.03244 -1.39726 -0.259315 0.407211 -0.875748 65 54 52
3.14099 -1.97818 -1.40477 0.0391892 0.0315721 -0.998733 63 54 50
3.209 -1.98473 -1.39046 0.16812 -0.00325185 -0.985761 143 123 111
1.05029 -2.7121 -1.78333 0.365154 0.528166 -0.766618 98 84 72
2.20553 -2.20987 -1.62315 0.248173 0.628703 -0.736983 133 110 104
2.38579 -2.21737 -1.52665 0.0639212 0.103085 -0.992617 97 76 69
2.44866 -2.22153 -1.51564 0.179781 0.202963 -0.962541 97 78 70
2.50894 -2.2209 -1.50541 0.248755 0.111348 -0.962145 108 89 82
2.61359 -2.11195 -1.51253 -0.749238 -0.162586 -0.642034 111 94 87
2.78867 -2.03388 -1.48336 -0.605725 -0.186455 -0.773519 124 114 111
3.17292 -1.92187 -1.39662 0.0403888 0.026028 -0.998845 89 77 69
2.2041 -2.1591 -1.61591 -0.00757208 0.575758 -0.817585 121 97 91
2.26842 -2.22127 -1.53103 -0.225517 -0.139612 -0.964184 107 84 77
2.3291 -2.22089 -1.52956 0.14478 0.171313 -0.974521 102 80 74
2.41695 -2.16644 -1.51472 0.0566296 0.105394 -0.992817 116 95 88
2.47691 -2.16946 -1.49925 0.181527 0.17029 -0.96853 114 93 86
3.03233 -1.91427 -1.41905 0.00502837 0.0818146 -0.996635 92 84 84
3.10604 -1.91781 -1.41 0.0623088 0.120681 -0.990734 105 99 96
3.09534 -1.91358 -1.42013 0.192433 -0.0321311 -0.980784 100 94 91
1.84027 -2.26772 -1.66539 0.390924 -0.175772 -0.903484 163 123 108
1.89552 -2.27362 -1.64011 0.524503 -0.0691786 -0.848593 175 140 130
2.07891 -2.24785 -1.57099 0.0776248 -0.219558 -0.972506 146 121 114
2.23005 -2.11883 -1.6059 -0.124394 0.416792 -0.90045 134 108 102
2.26043 -2.21643 -1.52674 -0.145089 -0.188213 -0.971352 107 84 77
2.29579 -2.1515 -1.56374 -0.157451 0.0407405 -0.986686 124 100 94
2.35522 -2.16724 -1.52206 0.148635 0.222827 -0.96346 117 94 88
2.37817 -2.09855 -1.53964 0.168948 0.217641 -0.961295 133 110 103
2.36862 -2.07893 -1.56485 -0.172928 0.349045 -0.921012 135 111 104
2.49471 -2.02282 -1.54843 -0.116737 0.313752 -0.942302 111 89 80
2.65877 -1.98938 -1.4942 -0.419289 -0.272392 -0.866025 83 68 62
2.7453 -1.99991 -1.46866 0.0906334 -0.207972 -0.973927 125 113 110
3.06524 -1.84622 -1.43107 0.0853999 -0.218839 -0.972017 54 47 43
-0.0930751 -2.84751 -2.0422 0.762945 0.530729 -0.36911 122 110 98
-0.0276759 -2.87483 -1.94836 0.8581 -0.160046 -0.487903 161 150 141
1.52202 -2.31042 -1.71673 -0.405118 -0.159036 -0.900326 194 166 160
1.56408 -2.35594 -1.68348 0.204188 0.00703064 -0.978906 226 196 187
1.89406 -2.21581 -1.65776 0.695529 0.0524789 -0.716579 169 134 123
1.90334 -2.17738 -1.65085 0.582847 -0.0651868 -0.809963 179 143 133
1.96233 -2.22387 -1.61196 0.573935 -0.0509644 -0.817314 150 119 111
2.44132 -2.02461 -1.53835 -0.121262 0.152592 -0.980822 98 74 66
2.51016 -1.94195 -1.58749 -0.573801 0.125693 -0.809292 93 73 64
2.61423 -1.94673 -1.50634 0.179384 0.423173 -0.888114 103 87 80
2.67 -1.95448 -1.50114 -0.216366 0.0947844 -0.9717 94 80 74
2.79263 -1.9164 -1.45979 -0.0677884 0.303346 -0.950466 68 55 53
2.99705 -1.85236 -1.42551 0.0963803 -0.0628185 -0.99336 83 73 71
3.16757 -1.8073 -1.39034 0.338176 0.902236 -0.267594 41 32 24
0.100214 -2.79231 -1.93466 0.920479 -0.0713294 -0.384227 125 112 101
0.260589 -2.74689 -1.85503 0.305019 -0.0563858 -0.950676 136 117 103
1.42296 -2.39692 -1.65287 -0.0210436 0.404619 -0.914243 82 51 46
2.46645 -1.96648 -1.55758 -0.575349 0.0660425 -0.815237 87 65 57
2.46678 -1.96808 -1.55358 -0.492883 0.0515561 -0.868567 86 65 56
2.6622 -1.89165 -1.49389 0.0228437 0.235148 -0.971691 61 46 39
2.95927 -1.79839 -1.42616 0.201901 0.412531 -0.888287 78 67 63
3.076 -1.72801 -1.44304 0.0146847 -0.0304074 -0.99943 61 55 46
3.07522 -1.73486 -1.44124 0.29054 0.405017 -0.866919 59 53 44
3.14333 -1.74231 -1.40468 0.333274 0.299979 -0.893835 62 55 46
3.22723 -1.75101 -1.36722 0.152924 0.515965 -0.842849 122 108 91
0.122278 -2.75059 -1.89309 0.893651 -0.105828 -0.436106 127 108 95
0.181097 -2.76103 -1.863 0.751582 -0.140676 -0.644464 123 103 89
1.03123 -2.38621 -1.76493 0.162913 -0.239295 -0.957182 103 64 60
1.25729 -2.34142 -1.70923 0.544953 -0.181393 -0.81861 97 59 53
2.04959 -2.09525 -1.57268 0.152303 0.0321038 -0.987812 175 146 136
2.25664 -1.99448 -1.5395 0.34313 -0.129541 -0.930312 158 130 123
2.44151 -1.92564 -1.53696 -0.461082 0.0864042 -0.883141 104 86 76
2.44143 -1.92338 -1.53703 -0.442748 0.0989717 -0.891167 105 87 77
2.46759 -1.87621 -1.57367 -0.644439 0.14022 -0.75169 62 45 35
2.6881 -1.83306 -1.4934 0.30434 0.0404648 -0.951704 83 69 62
2.90342 -1.71521 -1.49216 0.259762 0.454726 -0.851909 60 49 42
2.96997 -1.6975 -1.47613 0.182661 0.371799 -0.910165 62 53 44
3.0172 -1.72622 -1.46279 0.199926 0.24707 -0.948149 61 55 46
3.16329 -1.67937 -1.39563 0.350525 0.202823 -0.914328 73 63 49
-0.0427081 -2.69137 -1.94937 0.827587 -0.15572 -0.539305 146 133 128
0.268676 -2.67255 -1.84004 0.240292 -0.114073 -0.963975 197 176 159
1.65272 -2.16808 -1.65073 0.824235 0.152558 -0.545309 168 131 115
1.91468 -2.03543 -1.65227 0.78938 0.204495 -0.578844 196 159 147
2.29708 -1.91576 -1.55546 0.280172 -0.176006 -0.943677 217 196 188
2.41917 -1.8785 -1.5205 -0.788476 -0.147826 -0.597038 194 179 169
2.63307 -1.84434 -1.48384 0.200664 0.122086 -0.972023 73 58 50
2.65463 -1.77518 -1.5045 0.3104 0.0313804 -0.950088 73 58 50
2.73088 -1.73257 -1.50626 0.0793533 -0.354275 -0.931768 72 59 51
2.7834 -1.73486 -1.49725 0.108976 -0.336632 -0.935309 70 57 50
2.84872 -1.71793 -1.50343 0.0195891 0.123329 -0.992172 69 58 50
3.03257 -1.6707 -1.45397 0.22969 0.497157 -0.836706 75 68 56
3.09841 -1.67665 -1.42208 0.290399 0.324778 -0.900104 78 71 59
3.13231 -1.64467 -1.40591 0.220303 0.164469 -0.961466 122 109 95
0.0249103 -2.62222 -1.94576 -0.141516 0.0463313 -0.988851 173 149 139
0.110243 -2.60039 -1.9072 0.539439 -0.198875 -0.818202 200 168 150
0.329011 -2.56201 -1.8545 0.167278 0.113176 -0.979392 148 136 116
0.577128 -2.42556 -1.82325 0.115261 -0.214746 -0.969845 176 140 132
1.84974 -1.9863 -1.64079 0.740592 0.189125 -0.644791 160 119 105
2.34557 -1.86649 -1.54806 -0.0610348 -0.0915845 -0.993925 215 196 190
2.44737 -1.79709 -1.53865 0.0818126 0.032641 -0.996113 159 142 133
2.50501 -1.79911 -1.52901 0.158356 -0.021676 -0.987144 71 54 47
2.53094 -1.72613 -1.56597 -0.157933 0.214267 -0.963923 60 44 35
2.59087 -1.78143 -1.51313 0.425836 -0.00769472 -0.904768 85 70 62
2.64648 -1.73189 -1.52173 -0.828172 -0.1311 -0.544926 63 48 39
2.74712 -1.67441 -1.52297 0.0787979 0.341839 -0.936449 67 53 44
2.84295 -1.68829 -1.49279 -0.00226241 0.122687 -0.992443 65 52 44
2.93398 -1.64799 -1.47213 -0.0924301 0.76866 -0.632944 91 78 67
2.98985 -1.64792 -1.45957 0.198078 0.45222 -0.869633 94 83 70
3.00139 -1.62392 -1.432 0.20509 0.427861 -0.880269 157 139 124
3.0613 -1.62055 -1.42146 0.272869 0.283652 -0.919285 151 133 118
0.168949 -2.50304 -1.896 -0.254461 0.0801907 -0.963753 155 138 115
0.286614 -2.49063 -1.86883 0.192565 -0.137035 -0.971669 171 165 143
0.842856 -2.31995 -1.76907 0.170428 -0.0324419 -0.984836 188 149 141
1.59856 -2.05001 -1.68543 0.387388 -0.222719 -0.89461 209 181 170
2.39054 -1.79764 -1.54134 0.0708933 0.0243838 -0.997186 207 190 181
2.47499 -1.7469 -1.53828 -0.103134 0.0132103 -0.99458 117 100 91
2.48461 -1.73006 -1.54982 -0.161406 -0.108284 -0.980929 99 82 73
2.61994 -1.68416 -1.52016 0.108153 -0.0513745 -0.992806 60 44 33
2.67173 -1.68273 -1.53033 -0.1303 0.0625467 -0.9895 66 51 42
2.69471 -1.63732 -1.52746 0.00322711 0.273412 -0.961892 89 73 59
2.78663 -1.65001 -1.51102 -0.0215799 0.716358 -0.697399 82 67 56
2.8308 -1.64159 -1.48872 0.309891 0.689203 -0.654956 102 86 75
2.95826 -1.60566 -1.43856 0.159179 0.379344 -0.911461 146 123 108
3.01429 -1.60507 -1.4268 0.202151 0.447633 -0.871068 149 127 111
3.09791 -1.5907 -1.40491 0.173374 0.253511 -0.951669 130 105 88
0.120721 -2.45651 -1.88919 -0.15353 0.00201827 -0.988142 200 172 150
0.352478 -2.37644 -1.87131 0.552303 -0.218379 -0.804532 216 202 188
0.38243 -2.40116 -1.86748 0.805743 -0.114976 -0.580998 217 200 187
0.902907 -2.21768 -1.78326 -0.42158 -0.0401728 -0.905901 165 124 114
1.90905 -1.91283 -1.6089 0.150955 -0.0131693 -0.988453 184 156 145
2.35853 -1.75193 -1.53771 0.381311 0.325724 -0.865163 196 182 173
2.41874 -1.74674 -1.54192 0.0575267 0.0170633 -0.998198 203 186 177
2.41846 -1.7463 -1.54185 0.0580012 0.0317669 -0.997811 203 186 177
2.47811 -1.68495 -1.53127 -0.640961 0.0962351 -0.761517 133 117 106
2.51186 -1.6607 -1.57673 -0.117479 0.618517 -0.77694 61 43 32
2.55328 -1.67025 -1.55713 -0.105582 0.628466 -0.770638 69 52 41
2.64404 -1.63472 -1.53345 0.128786 0.578758 -0.805266 88 70 57
2.7419 -1.6266 -1.50289 0.265452 0.748771 -0.607353 124 106 91
2.78852 -1.61604 -1.46917 0.0600388 0.658434 -0.75024 150 127 112
2.8453 -1.60359 -1.4692 0.407247 0.211397 -0.888516 149 125 111
2.90303 -1.60516 -1.44953 0.247775 0.319539 -0.914605 146 123 108
3.05578 -1.58346 -1.39104 -0.565366 0.489303 -0.664036 139 109 91
3.02315 -1.52402 -1.43385 0.224812 -0.265711 -0.937474 150 116 96
0.300349 -2.36951 -1.87055 0.212087 -0.193543 -0.957894 198 190 173
0.358368 -2.33984 -1.84181 0.523602 -0.231464 -0.819918 220 199 190
0.414996 -2.30783 -1.8605 0.108483 -0.206029 -0.972514 213 185 180
1.83022 -1.90846 -1.5927 0.565267 -0.0651316 -0.822333 168 134 120
2.28208 -1.72891 -1.53441 0.315916 0.28668 -0.90444 44 36 27
2.33166 -1.68322 -1.55541 -0.208485 0.0423681 -0.977108 134 125 117
2.50153 -1.64079 -1.54195 -0.48757 0.075189 -0.86984 91 73 60
2.68579 -1.58533 -1.4986 0.195258 0.221758 -0.955352 149 122 105
2.69697 -1.60572 -1.47065 0.0614159 0.620721 -0.781622 149 123 107
2.73935 -1.58367 -1.48226 0.319555 0.381561 -0.86735 145 117 99
2.92761 -1.56095 -1.42518 -0.0156826 0.574108 -0.818629 148 116 97
3.07863 -1.53655 -1.38329 -0.796572 0.342541 -0.498136 146 112 92
-0.867421 -2.62738 -2.09455 -0.303642 0.838212 -0.452993 122 117 104
-0.193608 -2.34175 -2.02533 0.0190312 -0.0518158 -0.998475 180 146 129
-0.056047 -2.36154 -1.9715 0.33829 -0.259617 -0.904521 118 105 99
-0.0105964 -2.34791 -1.96177 -0.010248 -0.0667831 -0.997715 117 98 92
0.452304 -2.28225 -1.795 0.666126 -0.211187 -0.715315 117 80 77
0.56937 -2.20041 -1.81047 0.0628271 -0.206632 -0.9764 124 80 77
2.25834 -1.68268 -1.57488 0.141022 -0.0716855 -0.987408 41 38 30
2.35857 -1.63888 -1.55567 -0.0943118 -0.0342767 -0.994952 177 166 158
2.40674 -1.64022 -1.54662 0.122065 0.313226 -0.941801 192 178 168
2.45302 -1.63534 -1.53003 -0.339519 -0.116333 -0.933377 196 179 167
2.47788 -1.59558 -1.53073 -0.451831 -0.0170852 -0.89194 186 166 154
2.53832 -1.59426 -1.52103 0.199213 0.0521204 -0.978569 143 120 107
2.58444 -1.58744 -1.51346 0.283199 0.390515 -0.875954 149 122 108
2.63489 -1.59135 -1.49619 0.144818 0.468764 -0.871371 151 125 108
2.69008 -1.54535 -1.50092 0.430411 0.214866 -0.876686 156 124 105
2.75683 -1.53122 -1.46908 0.238154 0.255556 -0.937003 160 125 105
2.8651 -1.47787 -1.47739 0.0222286 0.375581 -0.926523 158 121 102
2.91031 -1.45489 -1.51706 0.207421 -0.0176251 -0.978093 156 119 100
3.04364 -1.4752 -1.42278 0.127425 0.409841 -0.903213 154 121 102
3.04558 -1.47393 -1.4161 -0.04614 -0.0513833 -0.997613 155 121 102
-0.879449 -2.55546 -2.1006 -0.37341 0.671432 -0.640113 125 113 100
2.31043 -1.65172 -1.52184 -0.5053 0.098802 -0.857269 49 44 36
2.37637 -1.58921 -1.55833 -0.389458 0.00233766 -0.921041 188 176 168
2.42625 -1.58823 -1.5468 0.254572 0.248274 -0.934641 193 177 166
2.50847 -1.53826 -1.54505 -0.00470343 -0.104954 -0.994466 158 133 120
2.55159 -1.53988 -1.51653 0.151463 0.228464 -0.961698 149 120 105
2.60411 -1.54609 -1.49802 0.509564 0.0903012 -0.855682 151 120 103
2.72232 -1.48954 -1.49393 0.165337 -0.0432244 -0.985289 161 125 105
2.77685 -1.48628 -1.48616 0.253804 0.181755 -0.950026 160 124 104
2.85064 -1.42419 -1.50357 0.153333 -0.0654486 -0.986005 153 117 99
-0.0127533 -2.17364 -2.01911 0.527107 -0.295194 -0.796881 118 104 99
2.28553 -1.60638 -1.49486 -0.510366 0.102688 -0.853804 34 31 25
2.31819 -1.6079 -1.52172 -0.575683 -0.0165926 -0.817505 51 45 39
2.34061 -1.56155 -1.53763 -0.41187 0.0187695 -0.911049 85 77 70
2.38589 -1.56447 -1.54981 0.070521 -0.148741 -0.986358 186 174 164
2.40031 -1.54171 -1.55153 0.161973 -0.158209 -0.97403 188 173 163
2.45106 -1.54712 -1.53939 -0.00122964 0.1265 -0.991966 192 173 160
2.54469 -1.50064 -1.53835 -0.757248 -0.19529 -0.623248 151 121 105
2.79466 -1.42534 -1.50043 0.253874 0.218532 -0.942227 154 118 99
2.7705 -1.41041 -1.53927 -0.322642 0.480917 -0.815243 154 118 99
2.82968 -1.4157 -1.50582 0.318456 0.272892 -0.907808 152 116 97
2.90796 -1.44135 -1.43081 0.126137 -0.06636 -0.989791 150 116 97
0.826351 -1.95413 -1.80084 -0.236997 -0.165805 -0.957257 124 84 78
2.11126 -1.57616 -1.57266 0.512467 -0.0967206 -0.853243 50 50 45
2.29552 -1.56401 -1.51144 -0.396115 0.0173948 -0.918036 38 33 27
2.36337 -1.5187 -1.54753 -0.387238 0.060513 -0.919992 137 125 117
2.38627 -1.47595 -1.55669 -0.32631 -0.00934955 -0.945217 180 163 153
2.422 -1.4945 -1.54671 -0.0367636 -0.120556 -0.992026 189 170 159
2.43088 -1.48005 -1.55049 -0.0726653 0.399461 -0.913866 189 169 157
2.48041 -1.49091 -1.53783 0.311353 -0.0166299 -0.950149 190 166 152
2.50453 -1.44882 -1.52697 0.112969 0.146853 -0.982686 180 154 139
2.54444 -1.4464 -1.5507 -0.546102 0.00763541 -0.837684 150 119 103
2.76483 -1.37804 -1.49519 0.253687 0.195569 -0.94731 154 120 103
2.82782 -1.38434 -1.4833 -0.00247358 -0.0822066 -0.996612 158 125 107
2.87447 -1.36984 -1.45836 0.202392 0.647583 -0.734625 196 166 149
2.91538 -1.34702 -1.45652 0.235541 -0.330567 -0.913918 208 185 169
0.323151 -2.04665 -1.89107 0.144696 -0.233937 -0.961424 208 179 168
1.59003 -1.70463 -1.64589 -0.355255 -0.320675 -0.878044 205 188 180
2.27093 -1.48147 -1.55304 0.43573 -0.149638 -0.887552 48 40 33
2.31878 -1.51418 -1.5262 -0.0751203 0.0105811 -0.997118 39 30 22
2.34062 -1.478 -1.53587 -0.299959 -0.00131992 -0.953951 76 63 54
2.40749 -1.43736 -1.55375 0.0941432 -0.124344 -0.987763 187 167 156
2.40935 -1.4341 -1.55962 -0.171021 -0.0349096 -0.984649 187 167 156
2.45439 -1.44449 -1.54561 -0.227983 0.384101 -0.894701 188 166 154
2.52909 -1.41336 -1.52343 -0.40169 0.171992 -0.89948 164 135 120
2.56574 -1.37388 -1.56557 -0.639387 -0.165039 -0.750963 152 120 102
2.6391 -1.40375 -1.46261 0.426679 0.130024 -0.895007 155 122 103
2.80133 -1.33844 -1.47814 -0.00782458 -0.218612 -0.97578 206 178 161
2.82909 -1.34497 -1.44122 0.061749 0.61271 -0.787892 211 185 168
2.92947 -1.30634 -1.43263 0.336322 -0.246317 -0.908964 196 178 162
-1.2168 -2.4341 -2.05883 0.110981 -0.0227532 -0.993562 188 177 173
0.651624 -1.89152 -1.79546 0.152142 -0.298148 -0.942317 89 57 54
0.746269 -1.8847 -1.8057 -0.332804 -0.115133 -0.935941 104 70 65
2.16469 -1.48894 -1.56797 0.50332 -0.108389 -0.857275 44 39 35
2.23145 -1.4456 -1.57496 0.11544 0.147457 -0.982309 75 65 58
2.28063 -1.45559 -1.54568 0.469985 0.517507 -0.715053 84 73 64
2.43401 -1.40156 -1.53695 -0.115446 -0.00928223 -0.99327 185 164 151
2.4777 -1.39813 -1.54826 -0.0200566 0.307909 -0.951204 185 163 149
2.48337 -1.36786 -1.54098 0.304138 0.122342 -0.944739 183 161 146
2.52638 -1.36336 -1.51318 -0.690233 -0.0602643 -0.721073 174 147 132
2.60829 -1.3422 -1.52392 0.259269 0.347887 -0.900974 157 125 107
2.67922 -1.3281 -1.51039 0.366199 0.377662 -0.850453 175 144 127
2.73349 -1.33043 -1.48139 0.356648 0.385293 -0.851089 196 167 150
2.78328 -1.31859 -1.44323 0.396088 0.534483 -0.746621 206 183 166
2.8756 -1.33016 -1.41709 0.104512 0.43779 -0.892982 202 181 165
-1.86615 -2.52245 -2.21259 0.116922 0.139361 -0.983315 111 100 87
-1.51524 -2.44172 -2.09195 0.101465 -0.0120913 -0.994766 188 178 171
-0.0696671 -2.03983 -1.91182 0.334577 -0.303007 -0.892325 118 104 99
-0.00627657 -2.03301 -1.93015 0.0688337 -0.180272 -0.981205 125 102 94
0.680079 -1.84185 -1.80651 0.242255 -0.318568 -0.916421 81 51 46
0.716098 -1.85197 -1.78157 0.20859 -0.316855 -0.925253 87 56 51
1.7179 -1.58023 -1.63594 0.694278 -0.0114731 -0.719615 72 69 57
2.2092 -1.40976 -1.5755 -0.100509 0.376148 -0.921092 111 99 91
2.20838 -1.40419 -1.57591 -0.351842 0.643785 -0.67952 112 100 92
2.25326 -1.41444 -1.56155 0.203024 -0.174058 -0.963579 116 101 91
2.25437 -1.40699 -1.56272 0.130567 0.23948 -0.962082 118 102 92
2.38406 -1.3975 -1.54118 0.381292 -0.14653 -0.912768 154 134 122
2.40794 -1.35469 -1.546 -0.09505 0.021917 -0.995231 176 156 143
2.45624 -1.36137 -1.5299 0.0993376 0.446281 -0.889362 182 161 148
2.51341 -1.33356 -1.50697 -0.578912 0.0600535 -0.813175 180 156 141
2.55852 -1.33304 -1.52852 -0.404602 -0.0805299 -0.91094 155 126 109
2.69901 -1.28344 -1.47762 0.250408 0.300302 -0.920388 203 179 163
2.83012 -1.30748 -1.40553 -0.0447803 0.584557 -0.810116 197 179 162
2.84379 -1.28421 -1.41953 -0.182541 0.428179 -0.885066 193 176 159
1.45979 -1.59415 -1.68099 0.21052 -0.387895 -0.89734 83 74 63
1.6359 -1.52033 -1.65751 0.643794 -0.209525 -0.735954 58 57 46
2.18294 -1.36852 -1.56846 -0.165197 0.35971 -0.918324 69 58 50
2.2304 -1.37699 -1.55626 0.0614736 0.329863 -0.942025 116 100 88
2.27308 -1.37635 -1.55504 0.400569 0.267972 -0.876205 116 97 83
2.36069 -1.35293 -1.54696 0.0379911 -0.0314353 -0.998784 111 90 77
2.38443 -1.31324 -1.54459 0.0103732 -0.00657517 -0.999925 123 103 90
2.43166 -1.31449 -1.54513 -0.177875 -0.259425 -0.949241 178 159 146
2.53681 -1.29547 -1.50693 -0.714036 -0.102875 -0.69251 184 160 145
2.5878 -1.30682 -1.49544 -0.02619 0.454171 -0.89053 179 152 135
2.56584 -1.26225 -1.54393 -0.475437 -0.108061 -0.873088 197 173 157
2.64669 -1.28442 -1.4992 0.479702 0.438731 -0.759869 204 178 162
2.73692 -1.28647 -1.42596 -0.110584 0.630008 -0.768675 199 177 162
2.78607 -1.27301 -1.39228 0.440153 0.574858 -0.689786 193 175 159
2.81479 -1.23355 -1.4448 0.121144 0.714416 -0.689155 188 172 155
2.86728 -1.24599 -1.4163 -0.85148 0.0631588 -0.52057 186 171 154
-0.228063 -1.94379 -1.98579 0.148335 -0.215636 -0.965141 177 140 122
0.341807 -1.78572 -1.88614 -0.0437711 0.161233 -0.985945 208 181 170
1.45709 -1.52057 -1.69087 0.664586 -0.215746 -0.715388 69 66 53
1.73384 -1.44446 -1.651 0.65099 -0.123412 -0.748987 59 59 59
1.84834 -1.42995 -1.62506 0.607002 -0.104513 -0.787798 105 103 117
1.84489 -1.41955 -1.63983 0.618658 -0.0998462 -0.77929 101 99 113
1.89599 -1.43605 -1.59605 0.591801 -0.193847 -0.782429 120 117 130
2.20491 -1.32429 -1.58542 -0.282923 -0.12236 -0.951306 97 81 69
2.24787 -1.33063 -1.57096 0.0988165 -0.256791 -0.961402 106 87 72
2.28825 -1.32244 -1.55968 0.409446 -0.110793 -0.905582 106 86 69
2.34326 -1.30389 -1.53263 -0.298084 -0.161921 -0.940706 102 82 68
2.40919 -1.27531 -1.53108 0.207362 0.0813567 -0.974876 159 140 127
2.47468 -1.28978 -1.52386 0.20498 0.559244 -0.803262 184 164 149
2.49563 -1.26195 -1.50383 -0.806047 -0.061875 -0.588608 199 178 163
-1.81707 -2.31605 -2.14512 0.448271 -0.294961 -0.843831 172 173 168
-0.896801 -2.08082 -2.02017 0.163612 -0.150855 -0.974922 76 64 57
-0.697675 -2.00911 -2.01994 0.175503 -0.0600949 -0.982643 125 111 103
-0.634886 -2.02654 -1.96995 0.0150207 -0.0953844 -0.995327 187 169 160
-0.014826 -1.76903 -2.04403 0.100183 -0.198023 -0.975064 103 91 85
0.172799 -1.85162 -1.82697 0.345175 -0.348377 -0.871486 148 109 93
0.525902 -1.73369 -1.7991 0.334311 -0.251326 -0.908335 125 94 94
2.15787 -1.32491 -1.56981 -0.280126 -0.111933 -0.953415 55 45 37
2.24658 -1.24767 -1.59974 0.178364 0.103324 -0.978525 94 74 61
2.27166 -1.25736 -1.59186 0.0373565 -0.116847 -0.992447 95 75 60
2.31725 -1.25611 -1.5599 0.406033 0.415812 -0.81378 105 85 72
2.34469 -1.28964 -1.53509 0.489264 0.120575 -0.863761 97 78 65
2.37456 -1.22866 -1.56002 -0.160692 -0.145049 -0.976288 180 160 149
2.53621 -1.2342 -1.51159 -0.821907 -0.10054 -0.560678 196 176 160
2.74926 -1.14787 -1.48761 -0.8477 -0.12 -0.516725 184 167 152
-3.8525 -2.86549 -2.34931 0.576901 -0.389999 -0.717695 72 81 82
-0.79204 -1.98703 -2.011 -0.074165 0.0810663 -0.993946 48 35 28
0.141728 -1.76166 -1.86604 0.824643 -0.160382 -0.542441 184 148 129
1.34422 -1.48291 -1.71234 0.423284 -0.345927 -0.837356 76 71 59
1.41483 -1.47282 -1.67741 0.4801 -0.306292 -0.822003 66 65 52
1.51946 -1.43425 -1.65521 0.802532 -0.0640158 -0.593164 44 44 33
1.59614 -1.45692 -1.58809 0.665477 -0.14957 -0.731279 50 49 42
1.73671 -1.37615 -1.63203 0.616238 -0.144688 -0.774155 77 75 88
2.13209 -1.2875 -1.55553 0.469683 -0.230322 -0.852261 49 39 31
2.18222 -1.2794 -1.56197 0.350294 -0.0105531 -0.93658 81 65 55
2.20549 -1.24574 -1.6065 -0.00541349 -0.123103 -0.992379 94 75 64
2.26989 -1.22097 -1.56491 0.33045 0.801141 -0.498975 139 117 106
2.31495 -1.21874 -1.53605 -0.154764 0.773153 -0.615047 188 168 156
2.39739 -1.18921 -1.54707 0.0719178 -0.150456 -0.985997 201 181 168
2.43519 -1.2151 -1.52515 0.176273 0.29855 -0.937974 201 181 168
-4.03459 -2.78019 -2.45474 0.614133 -0.442531 -0.653457 172 174 166
-0.0460429 -1.7174 -1.95937 0.100782 -0.258739 -0.960675 110 98 94
1.45586 -1.39922 -1.66665 0.759619 -0.0766851 -0.645831 54 54 42
1.6461 -1.39269 -1.60404 0.592202 -0.229165 -0.772516 51 50 52
2.15273 -1.23257 -1.58535 0.21553 -0.12545 -0.968405 106 88 78
2.22622 -1.21651 -1.58257 0.0276552 0.365124 -0.930548 120 98 88
2.35269 -1.19934 -1.52504 0.289558 0.2265 -0.929975 202 182 171
2.6773 -1.06372 -1.55988 0.543012 -0.0551964 -0.837909 184 164 145
-3.53521 -2.58685 -2.38145 0.334892 0.302959 -0.892224 113 109 104
-0.575081 -1.83819 -1.97569 -0.0807709 -0.00852457 -0.996696 129 105 95
1.8284 -1.27261 -1.6216 0.157771 -0.138841 -0.977666 78 72 75
2.18057 -1.19189 -1.57336 -0.0106616 -0.455684 -0.890078 155 132 121
2.20174 -1.17959 -1.58164 0.200199 0.379019 -0.903474 180 158 147
2.248 -1.18733 -1.54841 0.248128 0.134938 -0.959283 195 173 162
2.32849 -1.16364 -1.5077 0.327437 0.219892 -0.91893 200 180 168
2.37264 -1.15792 -1.5111 0.517026 -0.219794 -0.827269 200 180 168
2.86378 -1.05194 -1.4427 -0.245642 0.11283 -0.962772 130 117 79
2.86723 -1.05522 -1.43809 -0.274848 0.144875 -0.95051 131 118 80
-2.27919 -2.22878 -2.15532 0.255968 -0.0975518 -0.961751 121 103 94
-0.640789 -1.82303 -1.98836 0.311974 0.799688 -0.513002 188 172 165
2.09761 -1.14608 -1.58386 0.115732 0.289461 -0.950168 183 161 150
2.13814 -1.14655 -1.57749 0.29206 0.328194 -0.898326 191 170 157
2.17914 -1.14326 -1.57411 0.251044 0.118226 -0.960729 196 174 162
2.22393 -1.1458 -1.55467 0.262329 0.126162 -0.956696 199 178 166
2.27008 -1.15182 -1.52262 0.355825 0.0539638 -0.932993 200 180 167
2.66917 -1.05209 -1.45201 -0.104603 -0.237989 -0.965619 168 146 121
-2.41828 -2.1752 -2.20228 0.165229 0.0579453 -0.984552 47 40 35
0.563469 -1.46122 -1.84113 -0.39805 -0.0898424 -0.912954 151 113 97
0.880941 -1.41872 -1.72924 0.530991 -0.300453 -0.792323 158 114 96
1.59339 -1.2452 -1.64573 0.70409 -0.11986 -0.699922 82 70 73
2.24663 -1.05066 -1.61354 -0.647694 -0.248479 -0.720244 199 182 169
2.29324 -1.10462 -1.52019 0.281725 0.331428 -0.900437 202 183 170
2.4009 -1.06443 -1.51368 -0.00839451 0.406551 -0.91359 190 171 155
2.40945 -1.00343 -1.60173 -0.098905 0.330798 -0.938504 184 164 144
2.43694 -1.05548 -1.54803 -0.288148 0.368517 -0.883836 190 171 153
2.4596 -1.01781 -1.56035 0.177931 0.0589936 -0.982273 187 165 145
2.68661 -0.995077 -1.51216 0.0589344 0.104996 -0.992725 137 117 84
2.77821 -0.97175 -1.49087 0.38986 -0.0103235 -0.920816 107 93 53
-0.927751 -1.74133 -2.02359 0.55186 -0.461961 -0.694293 37 35 32
1.14983 -1.27644 -1.74869 -0.0714897 -0.446034 -0.892156 152 113 96
1.388 -1.24294 -1.70555 0.54857 0.327377 -0.769347 95 75 69
1.73963 -1.15143 -1.67487 0.680927 -0.175081 -0.711115 48 35 30
1.77723 -1.15728 -1.64802 0.621429 -0.191659 -0.759666 53 41 34
1.84563 -1.11776 -1.64592 0.553886 -0.233007 -0.799323 104 87 78
2.21583 -1.07017 -1.57422 -0.836509 0.143092 -0.528939 200 182 170
2.30325 -1.01105 -1.57501 0.144906 -0.315815 -0.93769 181 165 151
2.33502 -1.00004 -1.61686 0.177715 0.0898978 -0.979967 183 165 149
2.43307 -0.977183 -1.57597 0.11185 0.464176 -0.878652 177 155 132
2.47901 -0.986072 -1.53702 0.0540046 0.2867 -0.956497 175 151 126
2.5191 -0.98161 -1.55151 0.117786 -0.183103 -0.976012 156 132 105
2.68977 -0.959621 -1.4691 0.258019 0.014293 -0.966034 111 92 57
2.80131 -0.936652 -1.4843 -0.205314 0.24374 -0.947859 92 81 44
-3.79749 -2.3731 -2.40103 0.394133 -0.182565 -0.900738 81 78 70
-0.429748 -1.55484 -2.02539 -0.0600617 -0.0921643 -0.993931 129 94 77
0.213745 -1.45465 -1.87198 0.567981 -0.479695 -0.668798 147 109 92
0.741234 -1.32738 -1.78698 0.619276 -0.157637 -0.769186 165 121 102
1.22117 -1.2339 -1.72874 0.746376 -0.248399 -0.617431 196 165 151
1.26967 -1.23722 -1.70454 0.700615 0.69337 -0.168453 206 186 173
2.10573 -1.0406 -1.57255 -0.379447 -0.240488 -0.893412 202 184 171
2.1526 -1.05052 -1.5567 -0.807677 0.0716097 -0.585261 201 183 171
2.1891 -1.00894 -1.60833 -0.835288 0.0741232 -0.544793 183 168 157
2.19129 -1.01449 -1.61983 -0.77479 0.181103 -0.605724 188 173 161
2.25896 -0.998374 -1.61368 -0.856643 -0.124094 -0.500764 184 170 160
2.27996 -0.967146 -1.60708 -0.0515383 0.42485 -0.903795 165 151 137
2.32088 -0.973294 -1.5872 -0.201844 0.408339 -0.890235 168 152 135
2.35627 -0.968833 -1.61102 -0.635226 0.239768 -0.734166 174 155 135
2.39109 -0.964719 -1.61255 -0.260163 0.301158 -0.917398 174 154 132
2.45828 -0.948788 -1.55308 -0.0178615 0.2979 -0.95443 151 127 99
-3.68443 -2.22753 -2.36031 0.250284 0.0210557 -0.967943 99 97 94
-3.6863 -2.23785 -2.36093 0.205366 0.128862 -0.970165 99 97 94
-3.29168 -2.19333 -2.32418 0.207144 0.0604829 -0.976439 90 90 89
-2.45968 -1.9964 -2.244 0.0037531 0.445157 -0.895445 42 43 42
0.593746 -1.33294 -1.80592 0.537813 0.534951 -0.651601 166 125 108
0.833682 -1.2264 -1.86995 -0.499543 -0.106315 -0.859741 167 123 105
2.06312 -1.00796 -1.60073 -0.639661 -0.189847 -0.744844 189 170 158
2.18968 -0.973095 -1.59202 -0.836717 0.0877117 -0.540566 164 151 141
2.21078 -0.974671 -1.616 -0.438218 0.30665 -0.844944 167 154 143
2.24252 -0.959361 -1.61865 -0.445064 0.159337 -0.881209 161 148 136
2.30058 -0.938274 -1.58877 0.231626 -0.0151415 -0.972687 136 121 102
2.34131 -0.940089 -1.58819 0.0866302 0.561185 -0.823145 133 116 93
2.37304 -0.934522 -1.59084 -0.249933 0.0516001 -0.966887 146 127 102
2.41475 -0.941214 -1.57476 -0.11305 0.29158 -0.949843 146 124 98
2.48046 -0.918467 -1.52933 0.301157 -0.176549 -0.937089 138 116 82
2.53088 -0.910963 -1.54232 -0.0604286 -0.296721 -0.95305 127 106 72
2.63654 -0.883325 -1.50277 -0.73937 -0.05925 -0.670687 79 65 34
2.66071 -0.907107 -1.50015 -0.377787 0.344117 -0.85957 93 77 45
0.0132329 -1.34093 -1.97683 0.0663538 -0.337643 -0.938933 101 85 78
0.743358 -1.25795 -1.76643 -0.276837 0.269786 -0.922267 169 124 107
1.25705 -1.16526 -1.70694 0.832776 -0.175025 -0.525214 187 163 150
1.25381 -1.11931 -1.73587 0.695894 -0.34845 -0.627944 176 150 137
1.8114 -1.0175 -1.6309 0.704227 -0.158093 -0.69215 188 168 155
2.02441 -1.01474 -1.57177 -0.75096 -0.218304 -0.623219 185 165 154
2.04381 -0.967706 -1.62 -0.107791 0.102731 -0.988852 191 170 158
2.11339 -0.976728 -1.54731 0.00137058 -0.367924 -0.929855 203 185 173
2.21338 -0.93235 -1.60307 -0.669178 0.0279844 -0.742575 148 135 121
2.32433 -0.900976 -1.57181 0.232737 0.160353 -0.959229 109 92 66
2.59476 -0.859015 -1.50449 -0.00732391 -0.0555335 -0.99843 70 63 34
2.70607 -0.871215 -1.48084 0.0950067 0.193705 -0.976449 105 91 59
-2.43481 -1.88765 -2.19111 0.0918425 0.117084 -0.988866 69 66 61
0.787812 -1.17839 -1.82958 -0.337265 -0.143413 -0.930422 166 122 105
2.06689 -0.934444 -1.60542 0.0793438 -0.163804 -0.983297 198 176 162
2.11599 -0.944228 -1.58167 -0.268776 -0.340042 -0.901183 203 186 172
2.16889 -0.942126 -1.56952 0.0580658 -0.215781 -0.974714 183 169 155
2.3351 -0.86596 -1.57046 0.155157 -0.163604 -0.974249 106 88 59
2.38266 -0.87284 -1.52551 0.0768149 0.249693 -0.965273 120 101 71
2.54839 -0.858268 -1.50627 0.610842 -0.0247022 -0.791367 69 59 30
2.63084 -0.823626 -1.50125 -0.341797 -0.320255 -0.883522 84 72 46
2.68003 -0.819858 -1.5024 0.275174 -0.207754 -0.938679 100 86 57
-2.40495 -1.79513 -2.19053 0.135876 0.0582282 -0.989013 60 53 48
-2.04703 -1.69803 -2.18639 0.400236 -0.424972 -0.811918 119 94 80
-1.97308 -1.6911 -2.13586 0.0553085 0.109458 -0.992451 136 120 110
0.666326 -1.18796 -1.76956 -0.461368 -0.126505 -0.878143 164 122 104
0.70392 -1.21248 -1.74634 -0.349778 -0.0241207 -0.936522 166 123 106
0.703653 -1.21284 -1.74568 -0.357721 -0.0214052 -0.933583 165 122 105
2.03308 -0.913236 -1.58684 -0.287439 0.0272543 -0.957411 134 108 90
2.09518 -0.900766 -1.5919 -0.122762 -0.279843 -0.952164 206 185 168
2.14808 -0.897902 -1.58281 0.328638 -0.299439 -0.895731 196 179 162
2.19964 -0.892105 -1.58478 -0.545104 0.117213 -0.830134 145 131 112
2.24629 -0.865699 -1.58956 0.0109752 -0.620133 -0.78442 105 91 66
2.26389 -0.853116 -1.61244 -0.303466 -0.337401 -0.891106 96 79 54
2.7068 -0.775727 -1.47924 0.285065 -0.0186242 -0.958327 107 92 63
2.75748 -0.773538 -1.47522 0.202927 0.660639 -0.722757 103 89 58
-3.62486 -1.95154 -2.38202 0.227448 0.110219 -0.967533 91 89 84
-3.31499 -1.9382 -2.30861 0.239237 0.0183383 -0.970788 59 61 62
1.44826 -0.984692 -1.67876 0.770447 -0.180191 -0.611508 195 174 164
2.12745 -0.855179 -1.592 0.182357 0.0404091 -0.982402 197 176 157
2.1754 -0.84986 -1.59314 0.358018 -0.206641 -0.910562 186 168 148
2.23079 -0.818371 -1.60776 -0.714056 0.139633 -0.686023 109 92 68
2.28103 -0.805824 -1.6254 -0.263878 0.460375 -0.847598 113 95 69
2.35964 -0.829236 -1.54312 0.263168 -0.0541179 -0.963231 110 96 66
2.36708 -0.814348 -1.53625 -0.136119 -0.211325 -0.967891 102 91 63
2.49714 -0.781189 -1.53377 0.269074 -0.381113 -0.884507 57 55 31
2.55926 -0.783223 -1.50454 -0.186538 -0.553391 -0.811765 57 53 31
2.65504 -0.774706 -1.50205 0.323261 0.0214158 -0.946067 94 79 53
-2.56473 -1.68685 -2.21437 0.0965544 0.182418 -0.978469 61 66 58
-0.397216 -1.23656 -2.04275 0.28676 -0.502636 -0.815553 123 92 73
1.96266 -0.868297 -1.59134 -0.661104 -0.297728 -0.688694 144 110 91
2.15973 -0.81515 -1.59248 0.454425 -0.0808114 -0.887112 187 167 147
2.19559 -0.817032 -1.59757 -0.324443 0.287446 -0.901172 165 147 126
2.21581 -0.784522 -1.60125 -0.391311 0.241883 -0.887901 143 125 104
2.24452 -0.771282 -1.6065 -0.678429 0.1838 -0.711303 112 95 72
2.24906 -0.778256 -1.61481 -0.567194 0.117469 -0.815164 112 95 71
2.27797 -0.768339 -1.63214 -0.177298 0.659886 -0.730148 106 91 65
2.31754 -0.773127 -1.61983 -0.267203 -0.331216 -0.90493 101 89 63
2.33736 -0.775818 -1.57413 0.463686 -0.196095 -0.864027 93 83 57
2.3914 -0.776671 -1.54079 -0.14114 -0.464791 -0.874099 62 57 33
2.44605 -0.778668 -1.53916 -0.139708 -0.381657 -0.913685 53 51 27
2.53503 -0.732569 -1.53003 0.2225 0.00237384 -0.97493 57 54 35
2.6253 -0.735839 -1.49969 -0.256979 -0.432105 -0.864435 89 74 50
-1.31867 -1.4247 -2.05909 0.927815 -0.320466 -0.190948 176 176 171
-0.293293 -1.20622 -2.04725 -0.221119 0.0362338 -0.974574 128 94 75
-0.0246542 -1.16888 -1.93783 -0.123762 -0.239636 -0.962942 95 82 76
0.0412147 -1.1536 -1.95643 -0.0238979 -0.339413 -0.940334 146 119 106
2.0528 -0.796719 -1.58495 -0.704751 -0.0909447 -0.703601 128 95 76
2.18092 -0.783406 -1.59091 0.440823 0.0847649 -0.893583 178 158 139
2.23138 -0.748479 -1.59745 -0.570005 0.237644 -0.786524 124 108 87
2.26436 -0.739957 -1.60534 -0.354671 0.178332 -0.917827 98 85 62
2.31754 -0.728104 -1.64258 -0.307298 0.455 -0.835789 78 70 47
2.59712 -0.694209 -1.52084 -0.240349 -0.341826 -0.908508 94 77 55
2.64475 -0.69615 -1.52197 0.0673348 -0.489504 -0.869397 96 79 53
-3.48114 -1.78057 -2.34553 0.287038 -0.0555335 -0.956308 96 99 106
-3.37784 -1.77505 -2.31603 0.218814 0.0423093 -0.974849 77 82 88
