ply
format ascii 1.0
element vertex 722
property float x
property float y
property float z
property float nx
property float ny
property float nz
property uchar diffuse_red
property uchar diffuse_green
property uchar diffuse_blue
end_header
-8.07057 -1.97378 0.880042 0.0345613 0.0524424 -0.998026 116 94 84
-7.98072 -2.02644 0.938155 0.607245 0.0831333 -0.790153 181 145 125
-8.02493 -2.00058 0.903898 0.548936 -0.00462422 -0.835852 179 146 128
-7.93335 -2.05642 0.969397 0.00598457 -0.0470928 -0.998873 155 120 102
-7.86922 -2.04671 0.957763 0.115127 0.0235817 -0.993071 125 91 75
-7.90181 -2.00067 0.964582 -0.210105 0.107753 -0.971723 126 91 76
-7.85999 -2.03023 0.95318 -0.0734231 0.312056 -0.947223 126 92 76
-7.80736 -2.03594 0.949078 0.194828 -0.0911016 -0.976597 134 100 83
-7.83677 -1.98817 0.949572 0.0148651 0.641193 -0.767236 128 94 78
-7.7913 -1.99504 0.98071 0.332361 -0.394863 -0.856516 143 102 86
-7.78381 -2.00106 0.979103 -0.33467 0.263606 -0.904715 135 100 84
-7.54699 -1.9875 1.00528 -0.317348 0.0812474 -0.944822 136 103 87
-7.51178 -2.03165 0.999075 -0.330004 0.0959378 -0.939092 135 104 90
-7.44402 -2.01339 0.992471 0.216569 0.131312 -0.967396 181 161 153
-7.27625 -1.98281 1.02812 0.0236562 0.126448 -0.991691 75 49 48
-7.31278 -2.03903 1.02541 0.370124 0.0699644 -0.926344 62 42 38
-7.30309 -2.03091 1.02542 0.0281798 0.0946138 -0.995115 57 36 32
-7.25049 -2.03393 1.0311 -0.0382446 0.106616 -0.993565 61 34 32
-7.19613 -2.03404 1.02917 -0.0377033 0.13709 -0.989841 93 56 53
-7.22294 -1.98603 1.03398 -0.192693 -0.0666861 -0.978991 59 36 34
-7.17026 -1.99732 1.04827 0.395937 -0.0787102 -0.914898 62 38 35
-7.09225 -2.04695 1.04794 0.738033 0.135764 -0.660966 101 61 59
-7.11909 -2.00932 1.06631 0.733432 0.343728 -0.586454 86 54 52
-6.82177 -1.99896 1.03932 0.740917 0.0843585 -0.666277 80 65 56
-6.76237 -2.00349 1.05881 0.689766 0.0542736 -0.721996 63 43 39
-6.63587 -1.98265 1.02367 0.606607 -0.148732 -0.780965 84 57 57
-6.57449 -1.98295 1.0248 0.600635 -0.147728 -0.785757 70 44 43
-6.51829 -1.97173 1.01172 0.688991 0.496539 -0.527959 71 46 44
-6.1429 -1.9724 1.08769 0.663821 0.0575506 -0.745674 131 109 99
-5.77201 -1.9748 1.10619 0.603121 0.173784 -0.778489 95 75 70
-5.73904 -1.91919 1.11159 -0.0916501 0.138908 -0.986055 108 89 87
-4.95793 -1.90457 1.14621 -0.011435 -0.0110755 -0.999873 83 72 71
-11.0163 -2.12198 0.857521 -0.0199178 0.00526342 -0.999788 97 80 80
-10.9416 -2.07718 0.85536 0.0517457 -0.0365214 -0.997992 74 55 55
-10.8733 -2.09427 0.879199 0.0283367 0.350922 -0.935976 66 49 48
-10.8261 -2.10923 0.922036 0.194375 0.403012 -0.894315 67 53 50
-10.6824 -2.11109 0.917708 0.129916 0.131864 -0.982718 57 46 44
-10.5889 -2.11136 0.927311 0.0360278 0.04436 -0.998366 73 63 62
-10.5646 -2.10061 0.916949 0.00587124 0.0200089 -0.999783 76 65 64
-10.4749 -2.10609 0.922813 -0.0349433 0.150392 -0.988009 61 52 50
-10.3401 -2.08398 0.900542 0.167981 0.140837 -0.975678 55 45 43
-10.3295 -2.12654 0.913392 -0.099136 0.181082 -0.978459 82 73 71
-10.2723 -2.09641 0.937789 0.0515395 0.112309 -0.992336 82 66 63
-10.1843 -2.09687 0.943227 -0.0180425 0.317351 -0.948137 89 65 61
-10.1257 -2.11037 0.965513 0.226586 -0.512283 -0.828387 109 79 74
-10.0572 -2.08934 0.952876 0.233156 -0.364522 -0.901533 128 89 81
-10.0006 -2.06635 0.979297 0.404305 -0.454218 -0.793866 127 84 73
-10.0346 -2.07933 1.00757 -0.332581 0.291643 -0.896847 133 87 75
-9.53708 -1.99812 0.817198 0.564304 -0.380213 -0.732802 128 87 77
-9.40896 -1.98723 0.854701 0.899098 0.404688 -0.166885 198 176 172
-9.43589 -2.01242 0.835662 0.822493 0.321102 -0.469467 198 174 167
-9.44312 -1.9744 0.815392 -0.0111091 -0.0906256 -0.995823 184 157 149
-9.39056 -2.01452 0.917299 0.79722 0.573339 -0.189008 174 140 144
-9.35317 -2.0631 0.915438 0.834575 0.497321 -0.236974 151 107 117
-9.36287 -2.02166 0.966659 0.271426 0.663276 -0.697418 141 85 98
-9.34575 -2.06518 1.00228 -0.164187 0.200224 -0.965895 135 67 83
-9.30365 -2.05675 0.934453 0.430484 0.324468 -0.842261 137 70 86
-9.25913 -2.06127 0.964852 0.520536 0.0176229 -0.853658 137 63 77
-9.17153 -2.02222 0.939137 -0.0612082 0.557661 -0.827809 132 61 74
-9.11558 -2.02146 0.946353 0.145133 0.372848 -0.916472 125 67 81
-9.0779 -2.03684 0.97275 0.292953 0.471423 -0.831829 117 81 98
-9.02516 -2.05333 0.992838 0.214061 0.169621 -0.961981 96 88 109
-8.99528 -2.09774 1.04722 0.0760223 -0.352313 -0.932789 44 46 69
-8.93504 -2.05152 0.967918 0.024404 0.2317 -0.972481 42 45 67
-8.8699 -2.02212 1.01997 0.305173 -0.542375 -0.782751 57 56 73
-8.86103 -2.04416 0.954469 -0.000669777 0.0855229 -0.996336 48 49 73
-8.82324 -1.98587 0.951581 -0.0244813 0.00253409 -0.999697 61 59 84
-8.71251 -2.00228 0.970559 0.334488 0.0724313 -0.939613 196 178 174
-8.73025 -2.00269 0.966188 0.0648675 0.155538 -0.985698 195 178 179
-8.74229 -2.02216 1.01594 -0.0328056 0.151496 -0.987913 191 177 173
-8.66241 -2.01018 0.988218 0.0546442 0.0593719 -0.996739 183 155 148
-8.5506 -2.00151 0.967274 0.589756 0.58147 -0.560429 126 86 74
-8.44507 -1.9947 0.928951 -0.379329 -0.0908315 -0.920793 125 83 67
-8.41904 -1.96995 0.874061 0.16443 -0.0996629 -0.981341 124 81 66
-8.36225 -1.97507 0.893769 0.161394 -0.0949816 -0.982309 191 148 130
-8.30251 -1.97758 0.908849 0.144306 -0.0676521 -0.987218 183 146 126
-8.23457 -1.93479 0.930197 0.760864 0.107478 -0.639949 101 78 67
-8.26709 -1.97741 0.898253 0.780768 -0.0164361 -0.624605 155 123 106
-8.22437 -1.9918 0.925075 0.396383 -0.050435 -0.916699 100 80 69
-8.10061 -1.92905 0.886684 -0.0614608 0.192981 -0.979276 100 84 78
-8.13102 -1.93893 0.891589 0.129951 -0.16116 -0.978335 102 89 85
-8.07317 -1.92892 0.880156 0.0239059 0.0670818 -0.997461 111 89 80
-8.02201 -1.93076 0.893329 0.00250737 0.112661 -0.99363 176 144 127
-8.05079 -1.93933 0.903711 0.906461 0.100034 -0.410271 163 135 120
-7.98594 -1.96109 0.9301 0.522216 0.195111 -0.830194 179 143 123
-8.00974 -1.91743 0.94147 0.393022 0.0360663 -0.918821 177 143 123
-7.94017 -1.98371 0.959693 0.50962 0.0580708 -0.858438 165 130 112
-7.96249 -1.92644 0.962369 0.918865 0.0811829 -0.386131 180 142 124
-7.94692 -1.92609 0.96013 0.393536 0.159353 -0.905393 170 135 117
-7.93203 -1.96163 0.93543 0.814896 0.57951 -0.0106124 170 131 113
-7.96238 -1.93117 0.981445 0.248214 0.0470763 -0.967561 176 140 122
-7.87054 -1.94693 0.957019 -0.111293 -0.012046 -0.993715 124 90 75
-7.89664 -1.9423 0.974237 0.386651 0.162219 -0.907847 123 89 73
-7.83136 -1.98315 0.95552 0.149776 0.463705 -0.873239 129 95 79
-7.80643 -1.93602 0.959654 -0.510165 -0.0391458 -0.859186 142 102 85
-7.80986 -1.92978 0.962863 -0.464306 -0.0428438 -0.884638 142 101 85
-7.51396 -1.89057 0.947575 0.601635 0.0885743 -0.793845 138 103 89
-7.45205 -1.91259 1.00623 0.498362 0.108101 -0.860203 168 145 138
-7.47258 -1.95968 0.979747 0.432482 -0.013132 -0.901547 136 110 100
-7.50519 -1.916 0.983366 0.468984 0.0712444 -0.880329 135 103 89
-7.42029 -1.96933 1.00898 0.0856136 0.0991573 -0.991382 186 170 164
-7.3282 -1.9766 1.02839 0.606814 0.141553 -0.782138 99 75 74
-7.35403 -1.92962 1.03586 -0.402698 0.123089 -0.907019 166 143 141
-7.30046 -1.92686 1.02203 -0.177469 0.0723157 -0.981466 91 57 58
-7.24968 -1.93994 1.03253 0.223244 0.47751 -0.849792 89 58 59
-7.20211 -1.93096 1.03085 0.287653 -0.124278 -0.949637 66 40 41
-7.07171 -1.93126 1.07499 0.843242 0.0312816 -0.536623 81 51 56
-7.01732 -1.93178 1.08835 0.803124 0.0798622 -0.590435 70 49 54
-6.70598 -1.91717 1.1018 0.687834 0.0641436 -0.723029 34 36 35
-4.91761 -1.85407 1.15354 -0.341001 -0.494012 -0.799794 88 79 80
-11.057 -2.07433 0.845644 0.0943129 -0.106076 -0.989875 76 59 58
-11.0186 -2.04854 0.857371 0.100249 -0.106776 -0.989216 94 74 74
-10.8165 -2.01968 0.896858 0.471634 0.00225136 -0.881791 87 60 57
-10.7732 -2.02475 0.896105 0.0592316 0.299863 -0.952142 84 58 55
-10.6865 -2.02522 0.902631 0.0601976 0.364694 -0.929179 81 58 54
-10.5275 -2.05636 0.925879 -0.0834247 0.423613 -0.901994 75 58 56
-10.5017 -2.00863 0.917703 -0.0214559 0.150983 -0.988304 88 63 59
-10.4268 -2.02391 0.938465 -0.0691791 0.543407 -0.836614 86 66 62
-10.3036 -2.00823 0.926049 0.146438 -0.0602426 -0.987384 89 70 65
-10.2013 -2.002 0.928159 0.101234 -0.264186 -0.959144 92 68 63
-10.2016 -2.01623 0.944278 0.307383 -0.425611 -0.8511 94 68 63
-10.1532 -2.03425 0.975829 0.319975 -0.531632 -0.784209 103 73 69
-10.1262 -2.03449 0.973789 0.484281 -0.624561 -0.612695 108 78 72
-10.0176 -2.01182 0.950462 0.138689 0.54454 -0.827189 125 86 77
-9.52093 -1.88589 0.742556 0.520039 -0.482343 -0.704915 127 84 74
-9.45303 -1.95564 0.820303 0.422051 -0.203915 -0.883341 180 152 144
-9.48308 -1.91459 0.821805 0.495844 -0.319946 -0.807325 147 114 106
-9.44843 -1.92419 0.860703 0.460721 0.442265 -0.769505 195 172 167
-9.42336 -1.97225 0.86655 0.447046 0.382535 -0.80859 198 176 172
-9.40379 -1.93926 0.893189 0.888626 0.209033 -0.408227 189 165 164
-9.36187 -1.9641 0.920328 0.729478 0.344935 -0.590662 154 110 118
-9.3201 -1.94149 0.965573 0.373795 0.542742 -0.752136 141 75 90
-9.32004 -1.98376 0.934978 0.421829 0.360584 -0.831889 138 75 89
-9.30124 -2.00279 0.994779 -0.329081 0.113502 -0.937456 135 63 79
-9.29064 -1.98072 0.979503 -0.0777032 0.359499 -0.929905 138 65 81
-9.21672 -1.97446 0.962278 -0.141008 0.277634 -0.950282 126 57 71
-9.08614 -1.94538 1.006 0.153313 -0.406957 -0.900489 98 83 101
-9.05389 -1.99259 0.992527 0.0860361 0.26385 -0.960719 104 90 110
-9.00916 -1.93246 0.984928 0.175834 -0.482616 -0.858 71 70 94
-8.9877 -1.99543 0.992613 0.353217 -0.439962 -0.825634 60 61 87
-8.77741 -1.94659 0.974313 -0.0554782 -0.125876 -0.990494 150 141 151
-8.71845 -1.94082 0.97851 0.00671554 0.18647 -0.982438 195 177 173
-8.67743 -1.94637 0.96743 0.0487487 0.079513 -0.995641 196 173 166
-8.59225 -1.89295 0.958044 -0.479598 0.153944 -0.863879 126 88 79
-8.6 -1.91084 0.998703 0.167263 0.345667 -0.923329 125 86 76
-8.66431 -1.9834 1.03607 0.110183 0.155084 -0.981738 148 117 108
-8.5751 -1.95375 0.992385 0.263497 0.111395 -0.958207 130 90 79
-8.48351 -1.92007 0.971402 -0.334473 -0.166366 -0.927605 124 83 67
-8.44809 -1.91603 0.878799 -0.132825 -0.182011 -0.974284 126 84 69
-8.49746 -1.93257 0.965003 -0.339847 -0.149869 -0.928463 130 86 72
-8.38602 -1.85735 0.88211 0.670459 -0.0210086 -0.741649 165 120 103
-8.38634 -1.91572 0.879352 0.0188101 -0.043121 -0.998893 159 115 99
-8.33552 -1.861 0.893628 0.077406 -0.0144101 -0.996896 192 151 131
-8.28503 -1.8634 0.913898 0.201173 0.240974 -0.949453 168 135 116
-8.30667 -1.90421 0.899077 -0.509442 0.0929208 -0.855473 185 149 128
-8.31641 -1.88172 0.962263 0.169099 0.145321 -0.974827 173 139 119
-8.23901 -1.86674 0.928423 0.826354 0.0619009 -0.559738 100 77 65
-8.25786 -1.90089 0.904793 0.611583 0.0220766 -0.790873 132 103 87
-8.15911 -1.89704 0.900029 0.749973 0.283247 -0.597755 97 84 79
-8.10079 -1.88295 0.884015 0.0560855 0.0593804 -0.996659 100 84 78
-8.14314 -1.88313 0.949837 -0.4389 0.0505386 -0.897114 103 90 86
-8.04414 -1.84866 0.829369 0.358685 -0.506363 -0.784182 116 92 83
-8.05297 -1.89286 0.887721 0.253983 0.129487 -0.958502 148 122 109
-8.02741 -1.84194 0.895202 0.13784 -0.00304475 -0.99045 173 142 125
-7.98926 -1.88487 0.974754 0.542363 0.193098 -0.817652 177 142 122
-7.92402 -1.87806 0.971191 0.443817 -0.006035 -0.896097 141 107 91
-7.84266 -1.89865 0.957408 -0.112446 0.543315 -0.831965 129 94 79
-7.86863 -1.88398 0.969931 0.205325 0.045597 -0.977631 124 90 75
-7.83657 -1.84796 0.96301 0.153771 0.605249 -0.781044 130 94 79
-7.80551 -1.88338 0.976433 -0.265037 -0.0436588 -0.963249 135 100 84
-7.80477 -1.88028 0.971214 -0.30315 -0.0495116 -0.951656 138 101 85
-7.48024 -1.85577 0.994072 0.664279 0.105963 -0.739936 137 107 97
-7.42355 -1.88245 1.02897 -0.0228815 -0.0422019 -0.998847 192 173 167
-7.32625 -1.87201 1.03446 -0.494592 0.0116737 -0.869047 106 74 74
-7.37443 -1.87046 1.0261 0.265647 0.18364 -0.946418 192 172 168
-7.21321 -1.84948 1.00612 -0.468898 0.776763 -0.420445 75 44 47
-7.12502 -1.84139 1.00601 0.706882 0.0201313 -0.707045 84 52 58
-7.08088 -1.83708 0.996502 0.170988 -0.37251 -0.91214 71 52 57
-11.0163 -1.97659 0.892027 0.35217 -0.0532189 -0.934422 82 54 54
-10.9434 -2.00601 0.892031 -0.135129 0.512972 -0.847702 84 54 53
-10.7048 -1.94229 0.904798 -0.106626 0.336293 -0.935702 125 89 84
-10.602 -1.93529 0.897193 -0.0746122 0.210408 -0.974762 96 63 57
-10.5411 -1.95716 0.928158 -0.221573 0.404885 -0.887115 110 77 70
-10.4865 -1.98052 0.953505 -0.0873166 0.283922 -0.954863 105 74 67
-10.3636 -1.93686 0.928679 0.142206 0.228189 -0.963176 102 70 64
-10.3121 -1.96186 0.925763 -0.00170141 0.397549 -0.917579 101 73 68
-10.2625 -1.93168 0.932378 0.0138729 0.481824 -0.876158 125 92 85
-10.2339 -1.95619 0.941677 0.621438 -0.271322 -0.734982 112 82 75
-10.1531 -1.94506 0.940162 0.281596 -0.187994 -0.940937 113 80 74
-10.1413 -1.95958 0.951334 0.154652 0.109574 -0.981874 107 74 68
-10.0671 -1.96076 0.965395 0.26352 0.185887 -0.946575 122 84 76
-10.0176 -1.90085 0.912163 -0.145061 0.362671 -0.920558 124 84 76
-9.45712 -1.86002 0.836086 0.478074 -0.335954 -0.81153 186 160 153
-9.43279 -1.88241 0.888439 0.40478 0.344578 -0.847006 191 172 170
-9.38096 -1.88465 0.911689 0.822668 0.445854 -0.352748 160 132 137
-9.34561 -1.89348 0.949929 0.545691 0.551067 -0.631306 148 98 111
-9.301 -1.8848 0.97519 0.344485 0.434724 -0.832073 146 87 103
-9.26677 -1.92285 0.98018 -0.0374218 -0.116641 -0.992469 141 75 90
-9.24513 -1.87683 0.984206 0.222982 0.488847 -0.843391 145 92 107
-9.17583 -1.91716 0.966003 -0.0554253 -0.0546889 -0.996964 122 72 85
-9.04255 -1.89133 0.953022 -0.0503228 -0.00720745 -0.998707 96 85 103
-8.88732 -1.88346 0.9475 0.46744 -0.459316 -0.755334 50 55 86
-8.79782 -1.89379 0.96201 0.287433 0.0305122 -0.957315 99 95 112
-8.7418 -1.89058 0.970527 0.261885 0.129873 -0.956321 191 177 177
-8.68653 -1.84436 0.981047 -0.070156 -0.106058 -0.991882 190 168 162
-8.62961 -1.85155 0.990647 -0.0266618 -0.0651646 -0.997518 126 93 84
-8.6483 -1.89674 0.973174 0.0631899 0.123548 -0.990325 164 136 128
-8.54951 -1.82137 0.940506 -0.0625198 0.181158 -0.981465 126 84 72
-8.55338 -1.84262 0.97112 -0.163702 0.146703 -0.975541 127 84 71
-8.50808 -1.83276 0.959736 -0.0744056 0.139683 -0.987397 125 81 67
-8.52593 -1.87115 0.935688 0.315021 -0.518258 -0.795092 125 80 68
-8.45267 -1.83341 0.956852 -0.373033 -0.0145309 -0.927704 128 83 67
-8.36081 -1.81198 0.889371 0.0916775 0.0380943 -0.99506 189 145 126
-8.35779 -1.7967 0.893032 0.122705 0.0575718 -0.990772 188 146 126
-8.33388 -1.82154 0.951485 -0.171467 0.0761304 -0.982244 184 146 126
-8.3134 -1.81878 0.906844 0.453235 -0.048514 -0.89007 184 147 126
-8.29235 -1.83566 0.971513 0.0899003 0.0812182 -0.992634 141 109 94
-8.09895 -1.81112 0.913494 -0.397816 0.0950935 -0.912524 94 77 71
-7.94674 -1.8229 0.949762 0.910101 -0.0616839 -0.409769 176 138 121
-7.89494 -1.82228 0.974272 -0.356768 0.224525 -0.90681 122 88 72
-7.80086 -1.7878 0.948002 -0.116006 -0.419108 -0.900495 135 98 81
-7.81026 -1.81841 1.02673 -0.206883 -0.358735 -0.910224 138 100 84
-7.52341 -1.78962 1.01216 0.178303 -0.0930701 -0.979564 135 101 86
-7.54653 -1.83057 0.992876 -0.222495 0.151325 -0.963118 138 102 86
-7.47124 -1.77809 1.01854 0.402163 0.0376361 -0.914794 141 116 106
-7.39708 -1.82898 1.02818 0.0216774 0.203106 -0.978917 191 174 168
-7.42342 -1.78061 1.02182 -0.0325703 0.132793 -0.990609 188 170 163
-7.33258 -1.78588 1.05048 0.218906 0.359284 -0.907191 161 141 136
-7.35182 -1.82698 1.0351 0.12444 0.233618 -0.964333 168 146 142
-7.37813 -1.78976 1.04513 0.197182 0.403851 -0.893322 188 173 167
-7.24474 -1.79818 1.0154 0.150301 0.420532 -0.894741 78 52 52
-7.23834 -1.80396 1.007 0.606479 0.454998 -0.652043 74 46 47
-7.29031 -1.79552 1.00385 -0.0108826 0.191003 -0.981529 88 57 57
-7.28633 -1.77749 1.0249 -0.266222 0.194723 -0.944039 129 104 102
-7.27052 -1.75945 1.02394 -0.139323 0.0218077 -0.990007 170 149 146
-7.19144 -1.80648 1.01319 0.0498894 0.314384 -0.947984 79 50 52
-7.20578 -1.77744 1.02425 -0.000418991 0.770877 -0.636984 120 98 96
-7.12484 -1.77 1.03582 0.0350153 0.49166 -0.870083 149 134 133
-7.16579 -1.7653 1.0454 0.0676785 0.718273 -0.692462 178 161 159
-7.14575 -1.80759 1.02127 0.125691 0.452376 -0.882926 80 52 56
-7.10209 -1.80189 1.01479 -0.0682821 0.402139 -0.913029 68 51 54
-7.05558 -1.8076 1.01975 0.153502 0.357078 -0.921375 58 50 54
-7.07608 -1.7754 1.04281 0.145695 0.625999 -0.766093 135 126 127
-6.19624 -1.74138 1.11216 0.453303 0.816212 -0.35821 171 165 160
-4.89512 -1.65098 1.13598 0.585201 0.0599306 -0.80867 143 143 142
-10.7648 -1.90796 0.90797 0.0553456 0.394259 -0.917331 136 94 89
-10.6678 -1.90143 0.904728 0.0573241 0.40357 -0.913151 110 72 66
-10.5832 -1.91452 0.899934 -0.182194 0.444719 -0.876944 101 66 59
-10.3926 -1.93079 0.958067 -0.238993 0.444557 -0.863279 105 71 64
-10.3071 -1.86177 0.931063 0.0967296 0.321001 -0.942126 119 79 72
-10.2399 -1.88237 0.924249 0.179612 0.329579 -0.926886 140 101 94
-10.1762 -1.88507 0.943 0.193481 0.435131 -0.879333 136 98 91
-10.113 -1.88631 0.959962 0.110966 0.517075 -0.848717 116 77 69
-10.0442 -1.85562 0.974131 0.0010556 0.599988 -0.800008 121 81 70
-9.4621 -1.75533 0.737933 0.962921 0.258273 0.0779637 124 85 75
-9.46669 -1.79835 0.821275 0.718853 0.460172 -0.521049 166 137 129
-9.44217 -1.81702 0.871246 0.757607 0.452113 -0.470772 190 171 167
-9.50059 -1.79931 0.910262 0.603718 0.44399 -0.662116 191 169 163
-9.40843 -1.83069 0.91006 0.851029 0.369971 -0.372654 171 151 154
-9.3671 -1.84309 0.940766 0.666964 0.430465 -0.60816 146 115 126
-9.32626 -1.84625 0.97111 0.468266 0.498837 -0.729307 150 107 123
-9.23985 -1.81413 0.952971 0.548578 -0.221149 -0.806322 151 108 124
-9.15525 -1.85192 0.965462 0.191934 -0.0274602 -0.981024 135 105 119
-9.12191 -1.79546 0.967947 0.281721 0.279141 -0.917995 105 92 107
-9.11042 -1.79107 0.959888 0.00932536 0.0405387 -0.999135 102 90 105
-9.07917 -1.84302 0.960099 0.143988 0.0603159 -0.98774 116 104 120
-9.03582 -1.78184 0.948935 0.148602 -0.0629177 -0.986894 117 112 131
-9.00712 -1.83509 0.952384 0.292311 0.169516 -0.941179 107 105 127
-9.00001 -1.80424 0.969435 0.0376133 0.212965 -0.976336 103 103 126
-8.93587 -1.84973 0.981449 0.491927 -0.4742 -0.730166 49 53 84
-8.78968 -1.74296 0.889625 0.450186 -0.529025 -0.71935 105 100 120
-8.85125 -1.80373 0.997252 0.0906292 0.287272 -0.953552 104 99 121
-8.87092 -1.84381 0.973696 0.0545822 0.157452 -0.986017 74 76 105
-8.8787 -1.78628 0.955883 0.0829759 0.154863 -0.984445 71 72 100
-8.75992 -1.77573 0.949841 0.185392 0.137135 -0.973049 179 166 172
-8.72695 -1.79416 0.992319 0.129531 0.0519094 -0.990216 192 174 170
-8.73243 -1.82485 0.952012 0.58007 0.0285617 -0.814066 191 177 177
-8.67699 -1.80464 1.01143 -0.0751198 -0.0654503 -0.995024 164 137 130
-8.60993 -1.81352 0.961933 -0.465074 0.118123 -0.877356 125 90 81
-8.49678 -1.75447 0.906347 0.118909 -0.442707 -0.888747 123 79 65
-8.46566 -1.77349 0.940987 -0.00554574 0.0625098 -0.998029 123 79 64
-8.41672 -1.77899 0.952446 -0.0115197 0.058257 -0.998235 163 118 101
-8.36593 -1.77923 0.959833 -0.0677405 0.0802475 -0.99447 185 145 124
-8.38698 -1.74286 0.942176 -0.119534 0.00083527 -0.99283 182 140 121
-8.28526 -1.76795 0.914186 0.351637 -0.0412316 -0.935228 167 134 115
-8.30518 -1.71571 0.893346 0.178324 0.0913593 -0.979721 182 146 124
-8.25598 -1.71543 0.901866 0.742026 0.100744 -0.662757 127 99 83
-8.21589 -1.73552 0.918481 0.378936 0.0479251 -0.924181 95 76 67
-8.1834 -1.76843 0.907982 0.119949 -0.0233817 -0.992505 93 78 71
-8.11345 -1.74522 0.876985 0.10884 0.114911 -0.987395 101 89 85
-8.06362 -1.74225 0.878177 -0.574711 0.130986 -0.807806 114 94 85
-8.02615 -1.70603 0.921578 0.667324 -0.142496 -0.731009 170 139 122
-7.91333 -1.77122 0.985194 0.140558 0.249347 -0.95816 125 92 76
-7.92775 -1.71482 0.962448 0.912868 -0.149292 -0.379979 154 118 100
-7.85787 -1.75374 0.962961 -0.190194 0.167525 -0.967348 123 88 73
-7.8896 -1.7283 0.992089 0.60836 0.3096 -0.730784 118 84 68
-7.82254 -1.70746 0.957206 -0.213699 -0.0912856 -0.972625 128 92 76
-7.82927 -1.70606 0.9574 -0.0930713 0.250708 -0.963579 127 92 75
-7.80363 -1.7998 1.04477 -0.515099 -0.026381 -0.856725 143 102 85
-7.77303 -1.71643 0.964534 -0.510972 -0.130946 -0.849565 131 98 81
-7.81134 -1.7535 0.959068 -0.546833 -0.0746245 -0.833909 125 94 78
-7.75053 -1.78451 1.03084 -0.45654 0.0447861 -0.888575 131 98 82
-7.45359 -1.74737 1.03413 -0.119481 0.0800934 -0.989601 164 141 132
-7.4474 -1.7376 1.02673 0.00615942 -0.0446451 -0.998984 166 146 137
-7.50367 -1.74536 1.03718 -0.136706 0.0369237 -0.989923 133 101 88
-7.49793 -1.73298 1.01438 -0.00791922 0.0239323 -0.999682 130 101 87
-7.40457 -1.74149 1.03832 0.253543 0.126597 -0.959004 181 166 158
-7.24588 -1.76126 1.03969 0.0313239 0.810192 -0.585327 181 162 158
-7.28724 -1.74274 1.05247 -0.0820235 0.620448 -0.779947 189 172 167
-7.3067 -1.74522 1.05317 -0.0784006 0.248411 -0.965477 188 172 166
-7.14052 -1.71226 1.03017 -0.54621 0.298231 -0.78276 187 175 170
-7.09987 -1.71906 1.02476 0.00890173 -0.434071 -0.900835 191 179 175
-7.0387 -1.72388 1.07237 -0.619924 -0.196947 -0.759543 185 176 171
-6.96833 -1.68751 1.07046 -0.211458 0.539895 -0.814739 188 175 166
-10.3674 -1.81126 0.95717 0.0306975 -0.145377 -0.9889 111 72 65
-10.301 -1.83113 0.960144 -0.0222276 -0.172979 -0.984675 134 89 83
-10.1774 -1.80992 0.920781 0.312922 -0.220641 -0.923795 134 90 84
-10.136 -1.82663 0.962507 0.351221 0.360212 -0.864228 110 69 61
-9.52718 -1.75765 0.915803 0.704862 0.384592 -0.596036 183 159 150
-9.44428 -1.77701 0.987938 0.216012 0.616886 -0.756829 133 118 127
-9.45741 -1.79885 0.938477 -0.0139595 0.468012 -0.883612 183 166 167
-9.39517 -1.77937 1.00725 0.247926 0.449998 -0.857925 126 105 123
-9.38819 -1.79546 0.94276 0.600412 0.240047 -0.762812 133 112 123
-9.24383 -1.75637 1.0137 -0.177072 0.600789 -0.77955 125 105 125
-9.2884 -1.79216 0.98377 -0.174305 -0.166322 -0.970544 146 115 134
-9.19653 -1.78572 0.972707 -0.146632 -0.0233841 -0.988915 138 111 128
-9.10433 -1.73217 0.962596 0.67107 -0.119394 -0.731717 72 61 77
-9.03878 -1.73238 0.943369 0.0124199 -0.291494 -0.956492 112 105 123
-8.96603 -1.74724 0.965909 -0.0485739 -0.141618 -0.988729 106 104 127
-8.83247 -1.74218 0.999181 0.387965 0.128454 -0.912679 136 124 138
-8.86856 -1.73453 0.962055 0.416414 -0.624871 -0.660406 105 100 120
-8.7588 -1.73873 0.990568 -0.0187403 -0.140319 -0.989929 190 174 174
-8.70918 -1.749 1.00991 -0.0442032 -0.0516061 -0.997689 187 165 159
-8.63574 -1.74308 0.98039 -0.461411 0.129123 -0.87774 130 97 88
-8.59287 -1.76065 1.01793 -0.399663 0.123606 -0.90829 125 81 70
-8.42842 -1.65666 0.881021 -0.166261 0.148801 -0.97479 120 77 62
-8.46477 -1.67245 0.940589 0.103744 0.12003 -0.987335 123 79 64
-8.54399 -1.71795 1.0037 -0.0996289 0.255917 -0.961551 124 81 66
-8.44271 -1.72918 0.952302 -0.00350136 0.104835 -0.994483 127 84 67
-8.38846 -1.71538 0.949579 -0.113495 0.00166103 -0.993537 180 140 121
-8.35606 -1.69367 0.938631 0.357061 0.271728 -0.893684 185 146 125
-8.2855 -1.68112 0.91418 -0.483364 -0.0031026 -0.875414 168 137 116
-8.22262 -1.67195 0.921545 0.433308 0.0452521 -0.900109 94 74 64
-8.19217 -1.69013 0.92811 0.0411952 0.196472 -0.979644 91 77 71
-8.16999 -1.66243 0.92698 -0.439533 -0.132029 -0.88847 90 79 74
-8.04538 -1.65067 0.896996 0.0948791 -0.113011 -0.989053 156 128 115
-8.01177 -1.67195 0.948678 0.284066 0.0233297 -0.958521 161 129 111
-7.9567 -1.63826 0.947493 0.5156 -0.124277 -0.847769 163 130 112
-7.90794 -1.65626 0.970871 -0.137139 -0.161898 -0.977232 123 89 73
-7.87916 -1.70705 0.968783 -0.210632 -0.063356 -0.97551 118 84 69
-7.85285 -1.65935 0.964015 -0.164472 0.363764 -0.916856 122 87 71
-7.84738 -1.65544 0.96099 -0.14268 0.322326 -0.935814 122 88 72
-7.86183 -1.67211 0.989092 0.525091 0.0140809 -0.85093 121 87 71
-7.78137 -1.64248 0.913872 -0.448151 -0.224416 -0.865331 128 94 78
-7.80527 -1.66729 0.965637 -0.533597 -0.0426943 -0.844661 138 98 80
-7.80321 -1.65708 0.956997 -0.558791 -0.0525128 -0.827644 125 92 76
-7.78401 -1.64207 0.965011 -0.501139 -0.132702 -0.855132 129 94 78
-7.78401 -1.64207 0.965011 -0.501139 -0.132702 -0.855132 130 95 78
-7.78401 -1.64207 0.965011 -0.501139 -0.132702 -0.855132 130 95 78
-7.47821 -1.70173 1.03748 -0.137369 0.0850011 -0.986866 136 109 98
-7.43055 -1.69648 1.03504 -0.117477 0.0712262 -0.990518 181 161 152
-7.2172 -1.68833 1.08888 -0.70026 0.262232 -0.663981 182 166 158
-7.15969 -1.63936 1.08611 -0.383305 0.445567 -0.809041 128 105 94
-7.0619 -1.66476 1.07812 0.132749 -0.255916 -0.957541 183 165 155
-6.98915 -1.61603 1.05857 -0.0960829 0.33701 -0.936586 130 106 95
-6.61826 -1.62512 1.08006 0.696813 0.281368 -0.65976 126 101 89
-6.24409 -1.5914 1.08908 0.646768 -0.0709623 -0.759378 176 169 161
-6.2212 -1.64692 1.10523 0.698179 0.0533997 -0.713929 175 169 163
-6.13878 -1.59364 1.07976 0.640015 0.23465 -0.731655 174 164 160
-10.222 -1.7447 0.901031 0.0183647 0.35667 -0.93405 146 105 99
-10.1523 -1.75179 0.938775 -0.283296 0.32381 -0.902713 130 87 79
-9.56836 -1.69934 0.8881 0.956167 0.289203 -0.0458972 128 93 82
-9.47405 -1.70054 0.92095 0.8333 0.0970914 -0.544228 186 169 165
-9.46847 -1.70135 1.04569 0.183121 0.403474 -0.89648 120 104 118
-9.42804 -1.73807 1.02001 0.265032 0.42655 -0.864762 120 103 119
-9.36951 -1.72202 1.06277 -0.299848 -0.0252562 -0.953653 119 103 126
-9.23162 -1.7061 0.943707 -0.0193135 -0.243928 -0.969601 129 108 129
-9.23288 -1.67661 0.990233 -0.00338954 0.114757 -0.993388 120 103 125
-9.30094 -1.73816 1.04381 0.157166 0.436326 -0.885956 123 105 127
-9.13525 -1.69437 0.924386 0.674029 -0.114875 -0.729719 119 102 120
-9.15318 -1.65573 0.960889 0.146649 -0.17187 -0.974143 113 97 115
-9.09725 -1.67589 0.96754 0.476422 -0.104122 -0.87303 86 73 90
-9.04069 -1.67074 0.987757 0.326968 -0.028468 -0.944606 122 109 129
-8.98985 -1.67423 1.01191 -0.230681 -0.136642 -0.963387 118 107 127
-9.00498 -1.70983 0.982728 0.157765 0.0618364 -0.985539 121 112 133
-8.93136 -1.68964 0.960436 -0.253933 -0.212915 -0.943496 122 113 136
-8.73425 -1.63158 0.952668 0.443554 -0.604401 -0.661785 184 166 165
-8.79208 -1.6853 0.986512 0.492814 -0.49231 -0.717472 177 161 167
-8.70476 -1.64174 0.996686 0.418175 0.147367 -0.896333 183 161 154
-8.7366 -1.6924 0.999168 0.415835 -0.496661 -0.761846 186 168 165
-8.72567 -1.67971 0.996177 -0.134811 -0.16989 -0.976198 186 167 161
-8.65665 -1.64955 1.02132 0.262263 0.11282 -0.958379 128 94 85
-8.64164 -1.70112 1.04073 0.0862176 0.115475 -0.989562 129 89 79
-8.71239 -1.7163 1.06109 -0.248261 0.0367574 -0.967995 161 135 127
-8.61877 -1.65748 1.05302 0.400894 -0.504208 -0.764891 122 82 70
-8.5667 -1.68565 1.00989 -0.0712729 0.0251215 -0.99714 133 88 75
-8.542 -1.60799 0.923231 0.500158 -0.598445 -0.625864 123 82 71
-8.45163 -1.59978 0.888363 -0.336471 0.159607 -0.92807 130 85 71
-8.49703 -1.60635 0.941615 0.458847 0.130377 -0.878898 129 85 71
-8.40615 -1.61281 0.890972 -0.331846 0.091089 -0.938925 139 95 79
-8.34085 -1.65699 0.961089 -0.195288 0.00806805 -0.980713 182 145 123
-8.23971 -1.62023 0.902862 0.377188 0.146831 -0.914423 101 77 63
-8.26173 -1.57809 0.895577 -0.166349 -0.0334285 -0.9855 141 109 92
-8.31461 -1.60788 0.960946 0.0036594 0.0852773 -0.996351 170 137 117
-8.19989 -1.62719 0.932358 0.353619 0.0713702 -0.932663 90 76 69
-8.22223 -1.58339 0.923318 0.728235 -0.101335 -0.677795 93 74 65
-8.08774 -1.60427 0.9187 -0.386996 0.184478 -0.903439 95 76 69
-8.02156 -1.60172 0.906194 -0.105623 -0.0675638 -0.992108 129 96 81
-8.02018 -1.5798 0.892133 0.182271 0.363459 -0.913605 124 97 82
-7.98446 -1.58484 0.896298 -0.238244 -0.0494242 -0.969947 128 98 82
-7.93622 -1.59971 0.958167 0.777353 -0.087193 -0.622992 159 125 107
-7.88212 -1.60951 0.96751 -0.0864139 -0.0420167 -0.995373 116 81 65
-7.86798 -1.6181 0.977016 0.403942 -0.0998938 -0.909314 119 84 68
-7.82974 -1.62051 0.985003 -0.52159 0.0397355 -0.85227 131 93 76
-7.80715 -1.58535 0.906898 -0.538406 -0.071235 -0.839669 125 91 74
-7.74515 -1.51769 0.786313 -0.568967 -0.00285016 -0.822355 132 95 78
-7.819 -1.611 0.957333 -0.492017 -0.107697 -0.863899 133 94 77
-7.78768 -1.58024 0.973458 -0.504855 -0.144418 -0.851038 130 96 79
-7.78768 -1.58024 0.973458 -0.504855 -0.144418 -0.851038 130 96 79
-7.26689 -1.59242 1.03187 -0.474069 -0.0101608 -0.880429 129 101 88
-7.1799 -1.55927 1.06373 -0.662074 0.284323 -0.693411 134 99 84
-7.23264 -1.60915 1.05388 -0.687253 0.268516 -0.674968 128 101 88
-7.09295 -1.61334 1.0685 0.0458853 -0.459717 -0.886879 125 93 80
-6.9876 -1.57784 1.07859 -0.301211 0.659931 -0.688304 131 101 87
-7.0361 -1.62121 1.07571 0.0227244 0.368003 -0.929547 126 101 89
-7.02053 -1.5627 1.0823 -0.0969167 0.796681 -0.596579 131 100 84
-6.95125 -1.58578 1.05199 -0.365851 0.582601 -0.725761 130 103 90
-6.95178 -1.55204 1.08287 -0.402017 0.556662 -0.726986 136 105 90
-6.59497 -1.59086 1.11541 0.762984 0.00610527 -0.646389 121 94 83
-6.5416 -1.58475 1.1058 0.681758 0.208855 -0.701132 131 107 98
-6.11221 -1.54623 1.07965 0.633418 0.131883 -0.762488 80 61 60
-10.2331 -1.66484 0.897895 0.13356 -0.15458 -0.978911 119 85 79
-10.1695 -1.67312 0.912154 -0.0823655 0.384323 -0.919517 140 101 94
-10.1038 -1.68393 0.921046 -0.101104 0.366444 -0.924931 112 71 63
-9.59297 -1.61437 0.889013 0.730516 0.374274 -0.571196 120 84 74
-9.56886 -1.63098 0.937514 0.56126 -0.323519 -0.761789 161 136 128
-9.51443 -1.63688 0.941623 0.0622554 0.132987 -0.989161 183 165 161
-9.48171 -1.65036 0.983706 0.369689 0.286471 -0.883892 165 150 154
-9.45086 -1.61626 0.994206 0.518507 -0.0357179 -0.854327 126 112 121
-9.42199 -1.6374 1.03942 -0.000724912 0.05885 -0.998267 115 99 115
-9.34851 -1.63283 1.03197 0.0793769 0.0392453 -0.996072 120 104 123
-9.11267 -1.59172 0.991908 0.06759 -0.164517 -0.984056 72 58 72
-9.03346 -1.61305 1.01594 0.335169 -0.160415 -0.928401 121 104 123
-8.69587 -1.60471 1.02756 0.111447 -0.122326 -0.986213 160 136 128
-8.62199 -1.5701 1.0033 -0.330626 -0.0559256 -0.942103 102 73 66
-8.64262 -1.61207 1.04767 0.29739 -0.521636 -0.799659 110 76 68
-8.42214 -1.55384 0.897328 -0.376669 0.19851 -0.904828 124 81 65
-8.48487 -1.56144 0.934303 -0.495066 0.111358 -0.86169 125 81 67
-8.372 -1.54876 0.88947 -0.301438 -0.017059 -0.953333 175 134 116
-8.28295 -1.54869 0.922446 -0.330267 0.00347328 -0.943881 150 120 102
-8.16586 -1.56959 0.915365 -0.430998 -0.154133 -0.889092 88 78 74
-8.16795 -1.52788 0.914404 0.292841 0.0243791 -0.95585 86 76 72
-8.12615 -1.53813 0.945869 -0.250185 0.384749 -0.888468 97 86 82
-8.1158 -1.51523 0.918891 -0.198929 0.796603 -0.570833 94 85 81
-8.02297 -1.51274 0.89815 0.300848 0.549206 -0.779656 162 135 120
-8.09341 -1.55149 0.940554 -0.228936 0.0298904 -0.972983 91 76 69
-7.93671 -1.53812 0.977127 0.413326 0.110611 -0.90384 151 118 100
-7.98345 -1.54072 0.966828 0.399443 -0.484739 -0.778122 176 141 122
-7.89129 -1.56563 0.99724 0.433514 0.0434433 -0.900099 114 80 64
-7.89293 -1.53752 0.995417 0.37975 0.0786321 -0.921741 113 79 63
-7.9075 -1.5683 0.970921 0.0251327 -0.041724 -0.998813 120 86 70
-7.85416 -1.56076 0.9579 0.0208595 0.0263188 -0.999436 120 86 70
-7.83642 -1.56298 0.970722 0.396726 0.223193 -0.89039 123 89 73
-7.79636 -1.53009 0.916169 -0.408761 0.0280875 -0.912209 127 93 76
-7.80912 -1.56707 0.970668 -0.245465 -0.0191437 -0.969217 127 93 76
-7.82182 -1.54499 0.952799 -0.470394 -0.0957547 -0.877246 129 92 75
-7.8383 -1.53277 0.986522 0.288193 0.520055 -0.804044 123 89 73
-7.79272 -1.50281 0.959246 -0.455325 -0.24142 -0.856969 126 93 77
-7.79552 -1.50748 0.909596 -0.5007 -0.163076 -0.850121 123 91 75
-7.79552 -1.50748 0.909596 -0.5007 -0.163076 -0.850121 123 91 75
-7.79552 -1.50748 0.909596 -0.5007 -0.163076 -0.850121 123 91 75
-7.79537 -1.578 1.01383 -0.464192 -0.218634 -0.858327 133 98 81
-7.05766 -1.54647 1.0879 0.00365232 0.7558 -0.654792 133 99 84
-6.98774 -1.54548 1.11059 -0.274467 0.660398 -0.698958 133 101 85
-6.87491 -1.54441 1.09903 0.726335 0.136538 -0.673643 129 95 78
-6.85159 -1.46185 1.03553 0.320746 -0.494853 -0.807616 125 89 71
-6.66685 -1.50962 1.07571 0.797224 0.0584728 -0.600845 132 107 95
-6.6013 -1.50106 1.07296 0.697358 0.126742 -0.705428 182 162 152
-6.33307 -1.45633 1.06967 0.514605 -0.311438 -0.798867 88 54 51
-5.3383 -1.39352 1.11585 0.332203 0.756267 -0.56365 150 138 129
-4.6728 -1.35139 1.10322 0.110146 0.947775 -0.299318 88 79 68
-9.59915 -1.54441 0.878834 0.971122 0.22032 -0.091554 117 80 71
-9.49821 -1.57458 0.957193 0.393558 0.535641 -0.747129 176 161 161
-9.4275 -1.57728 0.974749 -0.225706 0.283924 -0.931904 119 104 112
-9.34907 -1.55451 0.982654 0.136802 0.137863 -0.980958 127 111 122
-9.22039 -1.57466 0.939972 -0.0212842 0.371592 -0.928152 121 105 122
-9.28047 -1.57217 0.981678 -0.0125222 0.237715 -0.971254 119 104 118
-9.19477 -1.53023 0.962369 -9.62913e-005 -0.423897 -0.90571 147 134 141
-9.08925 -1.52197 0.940887 0.0631774 0.306028 -0.949924 116 101 108
-9.05132 -1.56266 0.984226 0.347157 -0.0592426 -0.935934 124 107 120
-8.99371 -1.55751 0.994963 0.775051 -0.42147 -0.470806 129 113 125
-8.97989 -1.55664 1.04862 0.393076 -0.628659 -0.671028 152 136 145
-8.86893 -1.52111 0.980435 0.44809 -0.00792319 -0.893954 155 139 145
-8.81927 -1.51983 0.998992 0.415415 -0.0171087 -0.909471 177 161 163
-8.78837 -1.5234 0.979391 0.195748 0.216525 -0.956452 178 162 163
-8.85072 -1.56956 0.999683 -0.264925 -0.239473 -0.93406 137 119 128
-8.74161 -1.54665 0.987237 0.11363 -0.322307 -0.939791 182 166 162
-8.66476 -1.55243 1.02177 0.080113 -0.159185 -0.983993 123 97 92
-8.68198 -1.51253 0.983681 0.518836 -0.0556234 -0.853062 179 160 155
-8.71696 -1.54674 1.00257 0.35633 0.161485 -0.9203 181 164 158
-8.57944 -1.5426 0.945933 0.0697354 0.0118465 -0.997495 103 74 66
-8.43925 -1.46492 0.931294 -0.499772 0.0926668 -0.861186 115 75 61
-8.44851 -1.5043 0.931286 -0.508747 0.136788 -0.84998 115 74 59
-8.45532 -1.51259 0.936264 -0.505163 0.124528 -0.853993 116 74 60
-8.36504 -1.45153 0.888779 -0.257686 -0.102461 -0.960781 179 138 120
-8.38551 -1.49689 0.886242 -0.474785 0.214733 -0.853504 159 117 99
-8.34844 -1.50766 0.896269 0.150258 -0.0108216 -0.988588 184 146 126
-8.3182 -1.46057 0.924306 0.793215 0.1382 -0.593053 176 141 121
-8.30201 -1.50111 0.903816 0.399184 0.0767604 -0.913652 177 142 121
-8.27517 -1.4586 0.930179 0.85554 0.144103 -0.497279 134 105 88
-8.25411 -1.4952 0.894985 0.810246 0.210212 -0.547095 122 94 78
-8.22879 -1.45209 0.920404 0.808759 0.251704 -0.531559 89 68 57
-8.21303 -1.49461 0.899269 0.605988 0.00328037 -0.795467 90 71 62
-8.09169 -1.4708 0.916811 0.131172 0.0963991 -0.986662 90 76 71
-8.04846 -1.47386 0.928206 0.173424 0.0851571 -0.981159 161 135 121
-8.01423 -1.50723 0.978305 0.339242 -0.606209 -0.719323 176 141 123
-8.00936 -1.47863 1.02294 0.393774 -0.573676 -0.718218 173 138 119
-7.96021 -1.49729 0.971446 0.409181 0.149731 -0.900084 173 140 121
-7.94092 -1.45688 0.985986 0.287743 0.109285 -0.951452 154 122 104
-7.91159 -1.4331 0.91945 0.449787 -0.541328 -0.710391 156 121 103
-7.9162 -1.49649 0.989231 0.439838 0.104348 -0.891994 122 89 72
-7.91669 -1.49693 0.990874 0.0769404 0.0895595 -0.993005 122 89 72
-7.89865 -1.45728 1.00805 0.919865 0.0538144 -0.388526 116 80 63
-7.86998 -1.48883 0.995186 0.452916 0.0995103 -0.885983 114 83 67
-7.83474 -1.493 1.00037 0.22692 0.302333 -0.925798 128 92 76
-7.83308 -1.49324 0.95709 -0.186263 0.0864207 -0.978692 122 89 73
-7.80849 -1.45045 0.953954 -0.0658146 -0.466331 -0.882159 126 92 75
-7.77236 -1.45332 1.02117 -0.112368 0.0421547 -0.992772 127 94 77
-6.60283 -1.39812 1.06192 0.521398 -0.35337 -0.776707 179 170 161
-6.404 -1.4377 1.07404 0.643133 0.463802 -0.609318 116 81 84
-6.40665 -1.38608 1.06148 0.627278 -0.0908098 -0.773483 112 63 72
-9.53542 -1.53082 0.960382 -0.0213748 0.762806 -0.646274 180 162 160
-9.48798 -1.53734 0.989228 0.303316 0.0109974 -0.952826 166 151 153
-9.43967 -1.50058 0.975286 -0.00161919 -0.371152 -0.928571 172 156 158
-9.39417 -1.52029 0.972538 0.162408 -0.240744 -0.956904 171 156 161
-9.23582 -1.46229 0.895012 0.0450364 0.331935 -0.942227 186 173 176
-9.32124 -1.51957 0.983062 0.0950725 -0.0979578 -0.990639 180 166 171
-9.04329 -1.44787 0.936828 -0.230038 0.150365 -0.961495 187 175 171
-9.00965 -1.49979 0.966187 0.377987 -0.0313905 -0.925279 184 169 174
-8.9761 -1.50877 1.00892 0.19639 0.185983 -0.962726 186 172 174
-8.86515 -1.43798 0.896013 0.0516542 0.304118 -0.951233 188 175 174
-8.9467 -1.46195 1.01354 0.38949 -0.178937 -0.903482 181 172 168
-8.80025 -1.45123 0.940482 0.0893556 0.227108 -0.969762 192 177 175
-8.74074 -1.44574 0.957998 0.410047 0.466456 -0.783761 192 179 172
-8.78071 -1.49724 0.974603 0.172408 0.238013 -0.955837 186 171 170
-8.7086 -1.45015 0.989815 0.207191 0.0613665 -0.976374 192 178 171
-8.72688 -1.48856 0.97405 0.560507 -0.0649283 -0.825601 191 177 172
-8.69887 -1.50289 1.01636 0.0858076 -0.181509 -0.979638 193 177 172
-8.66461 -1.45247 1.0094 -0.0888754 -0.252251 -0.963572 192 176 171
-8.63463 -1.50098 1.01689 0.125043 -0.142561 -0.981856 193 171 165
-8.60054 -1.4484 1.00633 0.147421 -0.03598 -0.988419 193 172 166
-8.50608 -1.47257 0.980538 -0.487702 0.114982 -0.865405 140 105 94
-8.56736 -1.48897 0.999509 -0.0724333 0.309533 -0.948126 190 163 153
-8.32963 -1.40589 0.897268 0.321673 -0.49047 -0.809917 178 141 121
-8.29887 -1.42385 0.937597 0.204565 0.302184 -0.931042 160 129 110
-8.22767 -1.3887 0.906512 0.13728 0.729564 -0.669993 82 65 52
-8.15587 -1.39191 0.94261 0.0101812 0.0566391 -0.998343 86 79 76
-8.09225 -1.39118 0.919006 0.152923 0.0364332 -0.987566 87 74 69
-8.11491 -1.43147 0.915526 0.19819 0.495072 -0.845946 92 84 81
-8.06935 -1.43036 0.920499 0.133251 0.108859 -0.985086 121 100 92
-8.0461 -1.39976 0.93188 0.346739 0.0367246 -0.937243 161 133 119
-8.01786 -1.42183 0.906448 0.305777 -0.0533682 -0.950606 170 139 122
-7.9675 -1.42791 1.00186 0.118001 0.0954916 -0.988411 169 137 119
-7.91992 -1.41621 0.993797 0.101615 0.112875 -0.9884 123 91 74
-7.94715 -1.39407 1.01855 -0.33797 0.0675967 -0.938726 149 117 98
-7.81626 -1.41176 1.03857 0.916775 0.108237 -0.384459 134 98 80
-7.80159 -1.37239 0.969724 0.219129 -0.527764 -0.820639 121 91 74
-6.85653 -1.38328 1.08468 0.139843 0.917182 -0.373123 128 96 81
-9.44003 -1.46872 0.968164 -0.0739355 -0.293019 -0.953244 168 154 153
-9.28987 -1.44219 0.921114 -0.353152 0.567089 -0.744106 186 172 171
-9.34451 -1.41832 0.951018 0.312978 -0.353901 -0.881362 183 170 166
-9.37211 -1.47194 0.98608 -0.294676 0.389668 -0.87254 184 171 170
-9.2224 -1.40471 0.913729 -0.16502 0.562476 -0.810178 174 163 155
-9.1134 -1.41106 0.921576 0.303182 -0.66628 -0.681286 163 155 146
-9.04668 -1.37225 0.91876 -0.0704851 0.19902 -0.977458 118 110 97
-9.04368 -1.40529 0.900976 -0.0934477 0.158999 -0.982846 181 170 163
-9.01923 -1.42302 0.943075 0.202841 -0.542897 -0.814935 182 171 163
-8.95009 -1.4161 0.921074 0.24962 -0.646502 -0.72092 178 168 161
-8.8982 -1.39933 0.915721 -0.0242316 0.208646 -0.977691 177 166 159
-8.90762 -1.3999 0.919678 0.011016 0.252998 -0.967404 177 166 158
-8.84332 -1.39715 0.910628 0.0293455 0.219415 -0.97519 178 167 159
-8.85581 -1.40568 0.933907 0.0711355 0.0782906 -0.994389 178 168 159
-8.78895 -1.3671 0.957699 0.337494 -0.571328 -0.748119 86 80 64
-8.80606 -1.40398 0.936489 -0.0406731 0.498011 -0.866217 181 170 161
-8.77426 -1.41364 0.960944 0.478705 0.706596 -0.521117 186 175 165
-8.69236 -1.3846 0.989773 -0.00314707 -0.307022 -0.951697 112 100 90
-8.74305 -1.41973 1.00518 0.39937 0.318 -0.859872 171 160 149
-8.64515 -1.36949 0.961624 0.42773 0.702718 -0.568537 141 132 123
-8.62158 -1.38365 0.994484 0.562548 0.150738 -0.812907 186 171 163
-8.53678 -1.41492 1.01213 -0.363493 0.0244286 -0.931277 153 126 117
-8.53205 -1.36905 0.979491 0.630279 -0.0814523 -0.772084 170 146 135
-8.45232 -1.35614 0.939942 -0.466579 -0.00932862 -0.884431 115 78 66
-8.35454 -1.36595 0.92382 0.562641 0.109467 -0.819422 178 140 121
-8.34836 -1.3671 0.900026 -0.0268243 0.149499 -0.988398 178 141 121
-8.32673 -1.33079 0.915915 0.303428 -0.490819 -0.816718 174 139 119
-8.31403 -1.37898 0.930033 0.550181 0.241536 -0.79935 170 137 117
-8.26867 -1.37285 0.927876 0.348455 -0.0329202 -0.936747 119 92 77
-8.09755 -1.31774 0.937208 -0.070648 -0.0615256 -0.995602 85 73 68
-8.07029 -1.35472 0.926917 -0.0621544 -0.061901 -0.996145 118 97 89
-8.13411 -1.35493 0.951999 -0.0429582 -0.0813945 -0.995756 92 83 80
-7.99154 -1.38934 1.00498 0.456625 -0.0220058 -0.889387 170 138 118
-7.82736 -1.33808 0.982402 0.0226553 0.100436 -0.994686 119 87 70
-7.78814 -1.34236 0.995177 0.234076 -0.536016 -0.811108 125 93 76
-7.70574 -1.31423 0.981243 -0.552164 0.110152 -0.826427 127 94 76
-7.64838 -1.32554 0.985823 -0.302322 0.290602 -0.907828 130 96 79
-7.47068 -1.32267 1.10236 0.740033 -0.188005 -0.645759 130 92 75
-7.306 -1.33544 1.05707 0.0492683 0.17183 -0.983894 126 91 73
-7.25829 -1.33531 1.05906 0.258634 -0.570653 -0.779399 127 91 73
-6.33387 -1.26689 1.09472 0.140887 0.0390123 -0.989257 113 70 76
-6.30362 -1.2968 1.08728 0.181556 -0.0218465 -0.983138 152 116 113
-5.54877 -1.21598 1.12557 -0.173649 0.941461 -0.288957 173 171 163
-9.27131 -1.38242 0.933668 -0.155232 0.443863 -0.882547 143 132 123
-9.143 -1.35944 0.924069 0.253412 0.579828 -0.774327 86 79 64
-9.17505 -1.37725 0.938057 -0.198086 0.677667 -0.708187 100 92 78
-9.08711 -1.34786 0.93218 0.362704 0.717381 -0.59482 78 71 55
-9.09426 -1.36797 0.911314 -0.0290048 -0.0174827 -0.999426 111 103 90
-9.13572 -1.32439 0.952757 -0.379493 0.516981 -0.767278 89 81 62
-9.05102 -1.32091 0.960874 -0.277157 0.539769 -0.794879 91 79 62
-9.01877 -1.36225 0.919222 -0.0995367 0.327831 -0.939478 99 90 77
-8.99421 -1.32337 0.943744 -0.0785168 0.46847 -0.879984 88 77 61
-8.96432 -1.36156 0.912624 -0.069561 0.157624 -0.985046 109 99 86
-8.96922 -1.31417 0.957674 -0.16327 0.33591 -0.927635 89 77 60
-8.91624 -1.31495 0.954139 -0.103192 0.208352 -0.972595 86 77 60
-8.92802 -1.35318 0.924003 -0.104463 -0.0151152 -0.994414 87 78 63
-8.86612 -1.31719 0.954817 -0.0876927 -0.00527528 -0.996134 87 80 61
-8.87855 -1.35929 0.933836 0.0152899 0.221151 -0.97512 87 80 65
-8.88753 -1.36021 0.937891 0.0385505 0.249693 -0.967557 88 80 65
-8.81016 -1.35379 0.913402 0.146435 0.271177 -0.951325 99 92 77
-8.81662 -1.32911 0.96898 0.283115 0.538544 -0.793609 84 78 58
-8.74496 -1.35292 0.988797 -0.0366234 0.204812 -0.978116 87 79 61
-8.69128 -1.36739 0.990476 0.14442 0.734246 -0.663344 104 95 82
-8.70982 -1.33772 0.968378 -0.137573 0.274466 -0.951705 86 80 63
-8.61666 -1.32056 1.01999 0.447557 0.335635 -0.82888 190 175 166
-8.62929 -1.35567 0.996797 0.314127 -0.0685249 -0.946905 187 173 164
-8.65712 -1.32257 1.00308 0.734489 -0.0429642 -0.677259 171 159 148
-8.58225 -1.34528 0.997409 0.255103 -0.144803 -0.95601 183 167 158
-8.37253 -1.31447 0.897618 -0.439963 -0.172342 -0.881324 169 133 115
-8.29474 -1.28616 0.898371 0.13554 0.0922062 -0.986472 167 134 115
-8.29686 -1.30367 0.886402 0.697538 -0.0242682 -0.716137 170 137 117
-8.3525 -1.27889 0.910717 -0.122557 0.0412182 -0.991605 175 137 119
-8.2504 -1.25725 0.906653 0.601528 -0.0584687 -0.796709 102 77 62
-8.25206 -1.30294 0.900055 0.320619 -0.0614789 -0.945211 109 83 68
-8.30934 -1.3089 0.938835 0.0636685 -0.127354 -0.989812 166 134 114
-8.21006 -1.30698 0.922846 0.347584 -0.0492844 -0.936353 83 69 60
-8.2041 -1.27629 0.922915 0.345818 0.0256353 -0.937951 82 69 61
-8.21187 -1.27765 0.916058 0.405891 -0.0483464 -0.912642 84 68 59
-8.02665 -1.25924 0.850996 0.239009 -0.647814 -0.723334 139 113 101
-8.11971 -1.27927 0.942401 -0.0367849 0.113384 -0.99287 85 83 81
-8.0717 -1.27186 0.926549 -0.330312 0.0528923 -0.942389 117 96 86
-8.04345 -1.30627 0.911845 -0.301054 0.0588687 -0.951788 154 127 113
-8.00004 -1.32229 1.01983 0.342164 0.705652 -0.620466 167 136 115
-7.92137 -1.26982 0.982123 0.971713 0.00993294 -0.235954 136 101 85
-7.90242 -1.30641 0.996817 0.0103264 0.00633308 -0.999927 113 81 64
-7.87758 -1.26426 0.991045 0.0668093 0.00072059 -0.997766 112 80 64
-7.82785 -1.25747 0.978216 0.159658 0.0642695 -0.985078 122 88 71
-7.85532 -1.30369 0.993543 0.100587 0.00276604 -0.994924 117 85 69
-7.78169 -1.25443 0.976214 0.169541 -0.63355 -0.754897 132 96 79
-7.80411 -1.29302 0.974228 0.268461 -0.64186 -0.718293 129 94 76
-7.60908 -1.24531 0.966365 0.395151 0.570668 -0.719857 123 89 73
-7.47121 -1.24569 1.02058 -0.469734 -0.170968 -0.866095 127 92 75
-7.2782 -1.28886 1.04814 0.343462 -0.5618 -0.752605 126 90 71
-7.25351 -1.24984 0.973784 -0.471654 0.108443 -0.87509 126 90 71
-7.20622 -1.27002 0.999656 0.396208 -0.6328 -0.665269 128 91 72
-6.79572 -1.28652 1.12549 -0.545757 0.0261432 -0.837536 123 93 78
-6.83044 -1.26086 1.15066 -0.104263 -0.610653 -0.785004 122 86 69
-6.30547 -1.2199 1.09886 0.0672697 -0.0260375 -0.997395 144 109 120
-6.25179 -1.21791 1.09629 0.0263252 0.0177664 -0.999496 64 61 63
-5.58793 -1.15432 1.116 -0.0432869 -0.113574 -0.992586 172 172 165
-5.11088 -1.1663 1.13867 -0.0593526 0.960281 -0.272648 133 87 75
-9.25082 -1.32375 0.981237 0.0614343 0.239691 -0.968904 93 84 66
-8.95609 -1.27319 0.967264 -0.336069 0.376466 -0.863326 59 42 26
-9.02001 -1.27339 0.984606 -0.325917 0.436703 -0.838492 93 70 53
-8.90482 -1.27524 0.97617 0.0537874 -0.0563569 -0.996961 77 65 49
-8.78162 -1.29154 0.978072 0.870383 -0.434195 -0.23218 96 88 63
-8.70549 -1.23755 0.944865 0.833389 -0.039268 -0.55129 107 98 72
-8.63558 -1.27311 1.00425 0.212749 0.0315028 -0.976599 188 173 163
-8.49317 -1.22736 0.943946 0.373099 -0.354217 -0.857513 138 107 97
-8.53849 -1.28822 0.975122 0.332378 -0.350763 -0.875494 177 157 147
-8.28584 -1.19804 0.894513 0.297959 0.209423 -0.931323 163 131 112
-8.24539 -1.20836 0.904613 0.601752 -0.0549032 -0.796793 95 71 57
-8.20746 -1.22346 0.928377 0.531425 -0.524242 -0.665401 83 69 59
-8.21141 -1.2302 0.919354 0.566144 -0.0458273 -0.823031 83 68 59
-8.21119 -1.23307 0.925045 0.526949 0.0732321 -0.846736 83 68 60
-8.1743 -1.24922 0.942277 -0.465586 -0.149846 -0.872225 79 71 68
-8.09213 -1.18615 0.890797 0.509247 -0.00341964 -0.860614 81 73 68
-8.02034 -1.15599 0.694293 0.198911 -0.582014 -0.788475 83 77 73
-8.07024 -1.23134 0.898009 -0.0225911 0.150217 -0.988395 79 71 64
-8.02758 -1.19615 0.937301 0.424481 0.0555912 -0.903729 164 133 115
-7.91523 -1.20683 0.998313 0.974098 0.130371 -0.184762 122 88 71
-7.94828 -1.2228 1.00998 0.509695 0.00353143 -0.860348 150 120 102
-7.91051 -1.2399 1.01789 0.481749 0.0892808 -0.871749 110 80 63
-7.86608 -1.19349 0.98649 -0.11949 0.130766 -0.984186 114 81 65
-7.83075 -1.19921 0.999702 -0.0783167 0.0907294 -0.992791 122 89 73
-7.84981 -1.23419 0.990002 -0.0283445 0.131116 -0.990962 121 87 71
-7.5784 -1.23667 0.997666 0.0647075 0.686382 -0.724356 125 90 74
-7.54805 -1.1932 0.978163 0.183032 0.491676 -0.851325 126 92 75
-7.54805 -1.1932 0.978163 0.183032 0.491676 -0.851325 127 92 75
-7.47571 -1.13998 0.873552 -0.663025 0.306929 -0.682782 125 92 75
-7.54487 -1.24207 1.02445 0.17686 0.374786 -0.910086 130 94 77
-7.46629 -1.16737 0.943564 -0.66717 0.298153 -0.682634 126 92 75
-7.4794 -1.23232 1.00289 -0.368526 -0.268368 -0.890038 128 93 75
-7.2394 -1.21223 1.03609 -0.44928 -0.419464 -0.788795 125 88 70
-6.79869 -1.17916 1.11708 -0.536501 0.337058 -0.773666 120 90 74
-6.3315 -1.16964 1.07156 0.648176 0.026073 -0.761044 125 77 91
-6.33302 -1.17167 1.09282 0.159684 0.0471188 -0.986043 124 77 91
-6.30403 -1.13169 1.09603 0.646816 0.0433601 -0.761413 133 90 101
-6.27801 -1.17244 1.0961 0.0725093 0.0541754 -0.995895 153 134 141
-6.22559 -1.17305 1.09949 -0.0058082 0.0086363 -0.999946 60 63 63
-6.25234 -1.12632 1.09624 0.0568647 -0.134441 -0.989289 145 123 130
-8.97553 -1.22325 0.986047 -0.220065 0.457871 -0.861351 118 88 73
-8.91667 -1.21988 0.971895 -0.0709509 0.386223 -0.919673 48 29 17
-8.81514 -1.22602 0.952942 -0.374894 0.36585 -0.851826 102 94 72
-8.86704 -1.22288 0.969112 -0.202366 0.202632 -0.958117 77 66 50
-8.77719 -1.23423 0.975394 0.635485 0.271064 -0.722969 108 100 72
-8.82525 -1.20678 1.02066 0.374229 -0.210868 -0.903044 97 89 66
-8.70985 -1.18617 0.955616 0.61404 -0.0398493 -0.788269 117 107 80
-8.77297 -1.2085 1.02206 0.385797 -0.121325 -0.914571 118 109 81
-8.65374 -1.2258 0.987984 0.520601 0.0188415 -0.853592 169 156 141
-8.65837 -1.22738 0.983592 0.680989 0.0406137 -0.731167 160 146 131
-8.67106 -1.20631 0.983363 0.0951223 0.121023 -0.988082 143 130 112
-8.59594 -1.21362 0.97151 0.43586 -0.0664646 -0.897557 189 173 163
-8.53916 -1.20889 0.977567 0.65287 0.0836632 -0.752836 180 156 146
