ply
format ascii 1.0
element vertex 715
property float x
property float y
property float z
property float nx
property float ny
property float nz
property uchar diffuse_red
property uchar diffuse_green
property uchar diffuse_blue
end_header
3.97905 -0.678771 -3.96054 -0.93727 0.0604875 -0.343316 66 54 42
3.95278 -0.655191 -4.07851 -0.941634 0.0336252 -0.334956 69 58 47
4.0297 -0.581937 -4.32492 -0.955027 0.0992973 -0.279397 123 109 95
4.05212 -0.553927 -4.38403 -0.885597 0.103906 -0.452683 149 127 108
4.04293 -0.470921 -4.67706 -0.96315 0.137663 -0.231064 174 158 140
3.98023 -0.453902 -4.77711 -0.985597 0.040797 -0.164117 172 157 141
3.9934 -0.457724 -4.77961 -0.957599 -0.12465 -0.259744 175 159 141
3.85858 -0.860654 -3.34294 -0.911317 -0.159299 -0.379639 179 155 136
3.92485 -0.780443 -3.52343 -0.905777 0.071132 -0.417741 45 32 19
3.93893 -0.780461 -3.48659 -0.793488 0.0445366 -0.606954 42 29 16
3.94246 -0.734202 -3.64155 -0.94745 -0.0155532 -0.319525 39 31 21
3.97393 -0.61818 -4.13727 -0.937258 -0.024928 -0.347745 55 43 33
3.99346 -0.589594 -4.21214 -0.937661 -0.0332773 -0.345956 37 25 15
4.01123 -0.552113 -4.27854 -0.957047 0.0161047 -0.289483 34 26 16
4.07473 -0.52623 -4.44156 -0.912618 0.0294098 -0.407754 133 111 91
4.05692 -0.494047 -4.50469 -0.984915 -0.0357146 -0.169314 165 150 137
3.99314 -0.431707 -4.71416 -0.823123 0.520435 -0.227192 169 160 142
4.03431 -0.444621 -4.63009 -0.937066 -0.184467 -0.296445 170 158 140
4.05136 -0.437998 -4.70132 -0.957385 -0.116974 -0.264066 160 146 126
4.00877 -0.402705 -4.84143 -0.856849 0.0687006 -0.510969 157 139 112
4.04722 -0.401139 -4.80676 -0.960425 0.0159023 -0.278085 148 128 99
0.248824 -0.533867 -5.6092 0.997571 0.0678049 -0.0159878 118 117 112
-2.16771 -1.72258 -2.15154 0.0553411 -0.480916 -0.875018 106 87 74
3.80927 -0.9548 -2.83444 -0.899809 -0.00415916 -0.436264 192 167 144
3.83636 -0.896879 -2.96846 -0.919111 0.0259448 -0.393143 138 111 88
3.83219 -0.889768 -3.0393 -0.908851 -0.160144 -0.385154 127 97 75
3.84414 -0.825361 -3.2052 -0.920476 -0.0400317 -0.388743 117 89 67
3.94791 -0.726039 -3.57105 -0.844931 0.0528589 -0.532257 38 30 19
3.95672 -0.696618 -3.68729 -0.940834 -0.0626962 -0.333018 48 39 28
3.9358 -0.672793 -3.8077 -0.925378 0.177238 -0.335055 61 52 41
3.98141 -0.599949 -3.96165 -0.838611 0.219775 -0.498428 105 90 76
3.97237 -0.555725 -4.14856 -0.958124 0.0364998 -0.284017 39 30 20
3.95279 -0.574241 -4.16909 -0.868147 -0.0364475 -0.494967 73 60 48
3.98858 -0.561676 -4.138 -0.931023 -0.00207651 -0.364954 42 30 20
4.03055 -0.508861 -4.34929 -0.899459 0.114125 -0.42184 131 117 102
4.08263 -0.468959 -4.49877 -0.967774 -0.0790052 -0.239108 167 159 142
4.04513 -0.412702 -4.65208 -0.983562 -0.0542134 -0.17224 163 157 138
4.04979 -0.388927 -4.80768 -0.757371 0.144726 -0.636744 143 124 94
0.544344 -1.42479 -1.76313 0.0275137 0.796287 -0.604293 140 106 84
0.87229 -1.4661 -1.67591 0.0299355 0.875655 -0.482008 134 98 76
3.57934 -1.23822 -1.50362 -0.0832465 -0.714147 -0.695028 86 50 32
3.54419 -1.27146 -1.44684 -0.0467512 -0.706804 -0.705863 88 51 32
3.76806 -0.901996 -2.78656 -0.908868 -0.0139512 -0.41685 190 166 142
3.77174 -0.905866 -2.78663 -0.931433 0.0292285 -0.362738 195 173 150
3.8593 -0.769372 -3.33113 -0.937504 -0.0741276 -0.339988 157 132 112
3.9004 -0.746801 -3.40967 -0.923109 -0.12014 -0.365289 164 149 132
3.91907 -0.695336 -3.49916 -0.872622 -0.0970479 -0.478656 81 68 52
3.94385 -0.676067 -3.61042 -0.923122 -0.14626 -0.355603 39 29 19
3.94385 -0.676067 -3.61042 -0.923122 -0.14626 -0.355603 39 29 19
3.94696 -0.647596 -3.66181 -0.93624 -0.0383076 -0.349266 40 30 20
3.95279 -0.68096 -3.61313 -0.942478 -0.093329 -0.320976 38 30 22
3.94741 -0.598442 -3.81539 -0.92728 0.19577 -0.319101 61 49 39
3.97246 -0.550681 -4.08196 -0.947197 -0.0626381 -0.314474 77 65 53
3.99312 -0.519868 -4.20334 -0.954483 0.0753182 -0.2886 32 26 18
4.05759 -0.464305 -4.31614 -0.792524 0.113722 -0.599143 172 162 146
4.05562 -0.468158 -4.41257 -0.937176 0.149641 -0.315133 178 166 150
4.04227 -0.431241 -4.47468 -0.925054 -0.192595 -0.327386 177 168 151
4.03063 -0.423294 -4.53229 -0.950848 -0.121196 -0.284955 177 167 149
4.01848 -0.358215 -4.81949 -0.959917 0.0602614 -0.27373 130 115 90
3.58097 -1.1884 -1.47556 -0.0185776 -0.703246 -0.710704 83 48 31
3.81356 -0.861848 -2.8041 -0.920373 0.0155922 -0.39073 190 165 141
3.83716 -0.800736 -2.94997 -0.914009 0.193661 -0.356486 114 85 63
3.82264 -0.790798 -3.06851 -0.917874 -0.0676463 -0.391065 113 83 61
3.83747 -0.730598 -3.2188 -0.926236 -0.00771852 -0.376865 116 85 65
3.85754 -0.677475 -3.33568 -0.947063 0.0375857 -0.318841 129 101 82
3.94047 -0.651054 -3.56908 -0.912266 -0.206197 -0.353911 33 25 15
3.96893 -0.55792 -3.88201 -0.916041 0.204367 -0.345114 98 84 70
3.96485 -0.5605 -3.90975 -0.926604 0.157898 -0.341282 92 77 64
4.00342 -0.493521 -4.0742 -0.977416 -0.0312334 -0.209005 22 18 9
3.97584 -0.481068 -4.14751 -0.978315 -0.0210671 -0.206048 22 18 9
4.03937 -0.422934 -4.46648 -0.935148 -0.2104 -0.28501 174 167 151
4.03937 -0.422934 -4.46648 -0.935148 -0.2104 -0.28501 174 167 151
4.03653 -0.388997 -4.5664 -0.936438 -0.18829 -0.296026 163 154 138
4.08865 -0.312224 -4.84689 -0.962918 0.0719968 -0.260009 123 105 76
3.78278 -0.812918 -2.70474 -0.92084 0.0182164 -0.389516 185 163 140
3.80492 -0.750549 -2.86277 -0.922141 -0.109752 -0.37096 178 153 131
3.82575 -0.699284 -3.05321 -0.937504 0.0324742 -0.346455 113 79 59
3.90999 -0.619221 -3.50057 -0.958691 -0.0505055 -0.279931 160 147 132
3.89456 -0.609985 -3.45161 -0.932172 -0.0899039 -0.350674 180 161 145
3.9558 -0.576407 -3.68589 -0.944188 -0.136052 -0.299997 40 32 22
3.95793 -0.525594 -3.78758 -0.928932 -0.164077 -0.33191 76 65 54
3.98964 -0.489512 -3.9631 -0.926916 -0.13088 -0.351706 50 41 28
3.98826 -0.4914 -3.92555 -0.957684 -0.0416308 -0.284793 63 52 38
3.99337 -0.485082 -4.00543 -0.950565 -0.0663442 -0.303355 34 25 13
4.01526 -0.422777 -4.20427 -0.953421 -0.0475355 -0.297874 83 77 67
4.05856 -0.417189 -4.30969 -0.83549 0.0444719 -0.547704 164 154 136
4.07272 -0.38086 -4.37324 -0.930184 -0.206102 -0.303775 78 72 57
4.0794 -0.364133 -4.54951 -0.923308 -0.242535 -0.29779 29 27 14
4.03015 -0.338029 -4.68958 -0.966875 0.0879214 -0.23963 41 33 21
-1.42967 -1.34395 -2.11276 -0.145164 -0.432533 -0.889856 159 155 146
3.73868 -0.854354 -2.27917 -0.418784 -0.698393 -0.580402 146 126 102
3.84506 -0.696267 -3.01471 -0.928312 0.178776 -0.326002 116 81 62
3.84818 -0.646859 -3.16452 -0.930409 -0.0820658 -0.357217 118 83 64
3.91387 -0.564109 -3.50547 -0.947047 0.0196532 -0.320493 167 154 138
3.92999 -0.544751 -3.58718 -0.918541 -0.20639 -0.337173 63 53 40
3.96483 -0.476372 -3.89429 -0.944951 -0.0946238 -0.31323 124 112 96
3.99012 -0.471621 -3.98114 -0.970144 0.103052 -0.219547 32 24 10
3.99558 -0.427823 -4.08825 -0.368125 0.810207 -0.456125 33 26 14
4.02932 -0.385184 -4.27379 -0.951671 -0.0473441 -0.303448 150 143 130
4.04771 -0.361679 -4.41248 -0.971467 0.058551 -0.229836 49 45 31
4.05843 -0.335144 -4.48678 -0.981213 -0.045002 -0.187606 71 69 56
-0.949336 -1.24072 -1.96737 0.23839 -0.72566 -0.645436 115 85 65
3.65078 -0.848078 -1.88844 -0.403008 -0.715634 -0.570484 165 143 125
3.78977 -0.71163 -2.6757 -0.921349 0.020152 -0.388213 174 153 132
3.81153 -0.682184 -2.86648 -0.929727 0.0165707 -0.367876 161 136 116
3.84231 -0.60835 -2.9985 -0.882722 -0.184953 -0.431966 110 83 63
3.86447 -0.570373 -3.3637 -0.926462 -0.105978 -0.36116 119 93 75
3.87842 -0.53292 -3.36769 -0.851904 0.269521 -0.449019 122 98 79
3.89288 -0.525429 -3.41117 -0.940838 -0.00470507 -0.338824 147 126 108
3.94219 -0.496215 -3.66974 -0.918581 -0.197568 -0.34231 63 53 41
3.94417 -0.44564 -3.80006 -0.933598 -0.128194 -0.334606 162 151 137
3.99189 -0.438495 -3.95076 -0.909255 -0.249646 -0.333065 68 60 44
3.98313 -0.432231 -3.92939 -0.94098 -0.205599 -0.26886 118 111 92
3.99009 -0.40647 -4.06218 -0.740891 0.41625 -0.527083 33 26 14
3.99342 -0.392846 -4.11796 -0.939937 0.104759 -0.324877 28 22 11
4.00947 -0.372119 -4.21455 -0.873067 0.154161 -0.46259 70 62 50
4.00909 -0.371967 -4.2158 -0.85671 0.174782 -0.485283 70 62 50
4.05323 -0.352872 -4.3004 -0.922177 -0.109991 -0.370798 72 63 47
4.05622 -0.31259 -4.40545 -0.937036 -0.200557 -0.285901 158 152 140
4.07339 -0.302158 -4.52472 -0.934465 -0.220442 -0.279607 153 147 134
4.03916 -0.226016 -4.91112 -0.991731 0.0858113 -0.0954276 135 117 87
2.87212 -0.914082 -1.50524 0.702801 -0.354576 -0.616723 85 70 35
3.52992 -0.915809 -1.44668 0.030045 -0.716493 -0.696947 84 56 39
3.78107 -0.674672 -2.64449 -0.424405 -0.725898 -0.541251 168 147 125
3.78987 -0.634677 -2.73285 -0.930372 0.0437697 -0.363994 170 150 131
3.8362 -0.537265 -3.23963 -0.905847 -0.157673 -0.393168 139 114 94
3.91679 -0.480299 -3.49083 -0.943087 -0.00323085 -0.33253 178 163 146
3.93066 -0.443719 -3.59372 -0.923632 -0.196982 -0.328789 171 160 144
3.95092 -0.395874 -3.91975 -0.936669 -0.12269 -0.328023 167 157 139
3.95881 -0.402581 -3.87557 -0.935799 -0.126311 -0.329129 168 158 140
3.98939 -0.370155 -3.99266 -0.975911 0.0600382 -0.209744 48 43 28
3.98598 -0.342338 -4.15867 -0.976686 -0.0632681 -0.205136 24 20 14
3.98598 -0.342338 -4.15867 -0.976686 -0.0632681 -0.205136 24 20 14
4.00264 -0.346098 -4.2263 -0.951729 -0.159085 -0.262495 54 49 41
4.02758 -0.322392 -4.25034 -0.951672 -0.0813916 -0.296136 173 167 154
4.05848 -0.275294 -4.44731 -0.953606 -0.164935 -0.251856 67 62 50
4.07079 -0.261292 -4.5392 -0.98528 0.0116013 -0.170555 160 157 144
4.08695 -0.267337 -4.57102 -0.989118 0.0138584 -0.146472 82 79 65
2.84467 -0.863906 -1.5187 0.723353 -0.290652 -0.626324 82 67 34
3.77819 -0.615845 -2.48133 -0.929988 0.0583403 -0.362929 171 154 136
3.75821 -0.58814 -2.63782 -0.927138 0.0013193 -0.374718 170 153 134
3.79003 -0.634438 -2.55041 -0.300313 -0.763505 -0.571727 168 148 127
3.77812 -0.615797 -2.48171 -0.929747 0.0579471 -0.363611 171 154 136
3.77812 -0.615797 -2.48171 -0.929747 0.0579471 -0.363611 171 154 136
3.80431 -0.573852 -2.91313 -0.726907 -0.318515 -0.608403 157 135 115
3.83109 -0.519384 -2.95217 -0.900092 -0.16303 -0.404048 167 147 128
3.83294 -0.519411 -2.97513 -0.911209 -0.160785 -0.379271 168 149 132
3.86341 -0.489107 -3.29163 -0.851193 0.257256 -0.457483 131 108 87
3.90276 -0.460611 -3.35603 -0.930921 0.0188044 -0.364735 130 109 91
3.89769 -0.440004 -3.38637 -0.940955 -0.0058904 -0.338481 133 111 93
3.92885 -0.423714 -3.52961 -0.928078 -0.139374 -0.345321 175 161 144
3.92571 -0.424053 -3.59057 -0.928096 -0.135382 -0.346855 175 161 144
3.92924 -0.425517 -3.58523 -0.935152 -0.103166 -0.33889 174 161 144
3.92924 -0.425517 -3.58523 -0.935152 -0.103166 -0.33889 174 161 144
3.92376 -0.369868 -3.77701 -0.934648 -0.0420616 -0.353078 172 161 143
3.9347 -0.368848 -3.79432 -0.932108 -0.129112 -0.338385 171 161 143
4.04334 -0.286746 -4.30837 -0.959298 -0.00109392 -0.282393 75 67 54
-2.99243 -1.13059 -2.24979 0.0513068 -0.465112 -0.883764 135 142 138
3.78104 -0.564653 -2.47398 -0.927981 0.0475778 -0.369578 170 153 134
3.78012 -0.566141 -2.46582 -0.929981 0.0406116 -0.365357 170 153 134
3.78266 -0.541201 -2.77903 -0.928265 -0.0839602 -0.362318 169 154 136
3.79717 -0.542299 -2.70214 -0.929824 0.00987875 -0.367872 171 155 136
3.79918 -0.542804 -2.69777 -0.897317 0.0261396 -0.440612 168 150 129
3.85235 -0.464612 -3.07338 -0.886071 -0.264947 -0.380369 169 151 135
3.85369 -0.447942 -3.1838 -0.872497 0.323777 -0.365947 164 144 125
3.85338 -0.446401 -3.18731 -0.844821 0.380052 -0.376614 161 141 121
3.88971 -0.417475 -3.26904 -0.815948 0.213704 -0.537177 117 94 75
3.92957 -0.417702 -3.43048 -0.845154 0.115978 -0.521789 170 152 134
3.94214 -0.377161 -3.58405 -0.952501 0.0930938 -0.289957 165 155 136
3.93633 -0.321077 -3.94766 -0.906109 -0.109433 -0.408645 137 127 109
3.93503 -0.307185 -3.97049 -0.847479 -0.059379 -0.527497 146 135 117
3.9905 -0.28863 -4.12072 -0.922122 -0.213363 -0.32275 111 104 92
4.00568 -0.287866 -4.19144 -0.982754 -0.0243858 -0.183301 177 173 161
4.01083 -0.247556 -4.27588 -0.956153 -0.140114 -0.257177 176 170 155
4.04378 -0.24461 -4.37177 -0.956783 -0.154862 -0.246139 83 81 67
4.05432 -0.20598 -4.58554 -0.962535 -0.0876928 -0.256584 90 85 69
4.06352 -0.184058 -4.6944 -0.969972 0.0210943 -0.242299 67 56 37
0.646543 -0.847128 -1.77144 -0.164499 -0.665826 -0.727747 156 146 138
0.675145 -0.855285 -1.70575 -0.395688 -0.497706 -0.771829 151 142 134
3.77484 -0.505 -2.54278 -0.918784 0.0162099 -0.394428 168 151 131
3.7709 -0.505396 -2.55458 -0.924444 0.0212978 -0.380722 168 151 132
3.77746 -0.502441 -2.53657 -0.88716 0.03005 -0.460482 164 147 125
3.81792 -0.48457 -2.8625 -0.934536 -0.0078548 -0.355781 170 157 140
3.82424 -0.4824 -2.83192 -0.913425 -0.149848 -0.378417 170 157 139
3.836 -0.423775 -3.04007 -0.938182 0.0499456 -0.342519 140 128 111
3.92236 -0.387287 -3.36795 -0.891792 0.0965395 -0.442027 151 131 113
3.90657 -0.375755 -3.34619 -0.939014 -0.0286484 -0.342682 127 104 87
3.92897 -0.341186 -3.5655 -0.907325 0.0810844 -0.412537 94 81 63
3.92536 -0.342958 -3.49227 -0.943774 -0.00284968 -0.330578 106 92 75
3.94471 -0.336452 -3.51723 -0.934489 0.0578771 -0.351256 94 82 65
3.9258 -0.290929 -3.80098 -0.928784 -0.0910986 -0.359252 132 121 105
3.93488 -0.325185 -3.76147 -0.960331 0.144507 -0.238501 60 55 37
3.92646 -0.291077 -3.78781 -0.93593 0.00666989 -0.352124 136 125 110
3.93138 -0.324271 -3.76509 -0.904955 -0.0644759 -0.420594 88 76 58
3.92646 -0.291077 -3.78781 -0.93593 0.00666989 -0.352124 136 125 110
3.98096 -0.261907 -4.00294 -0.949327 -0.168195 -0.265496 58 53 39
3.97645 -0.263345 -4.02974 -0.973051 -0.0983258 -0.208577 58 52 41
4.01259 -0.252363 -4.15329 -0.928186 -0.137928 -0.345611 178 168 150
4.05778 -0.207806 -4.42077 -0.971996 -0.101554 -0.21192 158 158 142
4.05401 -0.208092 -4.37334 -0.980695 -0.0636694 -0.18489 171 171 154
4.07382 -0.194845 -4.51655 -0.969484 -0.106262 -0.220928 68 67 53
4.06774 -0.175674 -4.63772 -0.926464 -0.0852339 -0.366605 63 50 32
1.33628 -0.782914 -1.60092 -0.339112 -0.610695 -0.71558 56 48 43
3.73525 -0.449175 -2.4884 -0.719541 -0.2015 -0.664574 162 144 121
3.78859 -0.460108 -2.4859 -0.872273 -0.00635046 -0.488977 161 145 123
3.79796 -0.443964 -2.70653 -0.903982 0.0148397 -0.427313 155 141 119
3.81865 -0.38773 -2.86686 -0.895073 0.00187236 -0.445915 91 77 57
3.87783 -0.36234 -3.21887 -0.9289 0.00707752 -0.370263 147 126 109
3.86954 -0.375739 -3.19931 -0.925394 -0.0410867 -0.376773 158 139 122
3.88128 -0.36363 -3.22873 -0.929158 0.00696665 -0.369618 139 117 100
3.90562 -0.347135 -3.28147 -0.925142 -0.0491131 -0.376432 116 93 75
3.92582 -0.308992 -3.3935 -0.902595 0.137649 -0.40789 145 127 110
3.86281 -0.280559 -3.73606 -0.734308 -0.271701 -0.62207 139 123 105
3.92064 -0.280577 -3.84501 -0.865149 -0.0257363 -0.500854 125 113 96
3.94744 -0.248745 -3.86282 -0.942645 -0.0763269 -0.324954 142 133 116
3.95483 -0.252058 -3.86202 -0.943678 -0.0812423 -0.320737 154 145 128
3.96868 -0.21644 -4.13967 -0.983861 -0.0410909 -0.174155 179 174 159
3.9858 -0.220051 -4.0968 -0.912252 -0.24818 -0.325888 186 177 160
4.01649 -0.210428 -4.2585 -0.948653 -0.108066 -0.297286 172 163 144
4.03602 -0.173864 -4.30494 -0.960755 -0.124568 -0.247857 127 121 103
4.06637 -0.163162 -4.43288 -0.967516 -0.115742 -0.224759 111 109 96
4.06604 -0.158856 -4.44906 -0.956856 -0.15886 -0.243291 76 73 61
4.04218 -0.147991 -4.61033 -0.965458 -0.0331897 -0.258437 17 13 4
1.18554 -0.721272 -1.68512 -0.132307 -0.732465 -0.667825 51 42 35
1.36089 -0.658868 -1.70499 0.0106601 -0.779208 -0.626675 48 36 31
1.44468 -0.664348 -1.71098 0.0857009 -0.778191 -0.622153 92 79 70
3.69611 -0.454986 -2.1162 -0.911556 -0.148495 -0.383425 152 134 113
3.76139 -0.389666 -2.62958 -0.906423 0.0123387 -0.42219 159 144 122
3.85012 -0.340468 -2.95969 -0.937971 0.0461801 -0.343623 121 111 94
3.84483 -0.335035 -3.09266 -0.908237 0.242769 -0.340836 140 127 109
3.85462 -0.319623 -3.14913 -0.934711 0.0811194 -0.346027 143 128 110
3.87556 -0.305397 -3.20812 -0.921623 -0.0574841 -0.383805 148 128 110
3.92881 -0.30106 -3.36653 -0.934239 -0.0743423 -0.348813 147 128 113
3.93768 -0.309908 -3.33787 -0.872603 -0.294157 -0.389918 145 126 110
3.93156 -0.310234 -3.3062 -0.923474 -0.0803858 -0.375146 132 111 94
3.8954 -0.247842 -3.77285 -0.860771 0.00964645 -0.508902 148 134 117
3.9223 -0.213087 -3.84058 -0.91759 -0.166305 -0.361069 144 133 116
3.9564 -0.20086 -3.96198 -0.980387 -0.0522895 -0.19002 173 168 153
3.96295 -0.190535 -4.01158 -0.976279 -0.0787552 -0.201683 180 174 158
4.00322 -0.181984 -4.14869 -0.942846 -0.132644 -0.305692 175 164 145
4.0006 -0.178364 -4.18241 -0.984878 -0.028377 -0.170913 175 168 150
4.0541 -0.121159 -4.56157 -0.968078 -0.0162652 -0.25012 43 36 25
3.38262 -0.553108 -1.37321 0.1123 -0.761832 -0.637966 140 123 104
3.79421 -0.337387 -2.73912 -0.918397 -0.120728 -0.376792 149 140 120
3.82165 -0.297753 -2.8499 -0.923794 -0.103863 -0.368535 79 69 51
3.85575 -0.296878 -3.11713 -0.905299 -0.23516 -0.353743 129 116 99
3.90388 -0.261177 -3.26559 -0.907787 -0.0924924 -0.409106 112 90 73
3.92623 -0.222375 -3.44906 -0.940931 0.0786884 -0.329328 136 121 104
3.91385 -0.22927 -3.46814 -0.92635 -0.0834914 -0.367294 147 131 113
3.92099 -0.243038 -3.47307 -0.932883 -0.110789 -0.342718 133 119 102
3.92138 -0.204018 -3.76214 -0.935678 -0.17064 -0.308849 135 127 110
3.97061 -0.146302 -4.108 -0.969305 -0.102505 -0.223476 184 174 157
4.01992 -0.141457 -4.2294 -0.975534 -0.0689744 -0.20875 79 63 46
4.05553 -0.133663 -4.35578 -0.977037 0.021134 -0.212018 46 42 27
4.02157 -0.083563 -4.72928 -0.928823 -0.234488 -0.286885 107 97 83
0.253899 -0.637581 -1.80446 0.103819 -0.774203 -0.624365 144 126 108
0.296722 -0.637008 -1.80219 0.0932723 -0.770452 -0.630638 160 146 132
0.361049 -0.603392 -1.80254 0.110161 -0.78784 -0.605947 140 131 120
0.463406 -0.592654 -1.69134 0.0653019 -0.691156 -0.719749 75 72 68
3.74418 -0.348461 -2.41741 -0.923251 -0.0313654 -0.382914 157 145 123
3.78672 -0.32563 -2.40917 -0.953218 0.0637687 -0.295482 149 143 122
3.76608 -0.290148 -2.60762 -0.894206 -0.105086 -0.435146 153 140 117
3.81971 -0.250131 -2.83338 -0.927518 0.1172 -0.354928 110 99 81
3.85505 -0.240875 -2.95959 -0.938485 0.045608 -0.342294 75 65 50
3.87526 -0.233536 -3.17621 -0.891939 -0.213179 -0.398748 151 134 114
3.9075 -0.201535 -3.26785 -0.902002 -0.118041 -0.415281 106 85 66
3.92925 -0.179493 -3.50693 -0.928013 -0.0148419 -0.372253 120 106 87
3.93487 -0.164478 -3.88011 -0.947731 0.0174027 -0.318594 130 121 103
3.99021 -0.116662 -4.15415 -0.98324 0.0145035 -0.181737 55 39 22
4.05918 -0.096309 -4.42693 -0.95156 -0.144459 -0.271412 93 86 73
4.05514 -0.0661853 -4.50191 -0.954879 -0.174765 -0.240134 125 119 108
4.0463 -0.0649259 -4.52135 -0.94287 0.221193 -0.249139 121 114 102
4.0463 -0.0649259 -4.52135 -0.94287 0.221193 -0.249139 121 114 102
-2.96369 -0.685957 -2.30587 -0.00543882 -0.466605 -0.884449 25 23 18
0.247683 -0.529979 -1.81146 -0.458612 -0.3599 -0.812494 163 144 126
0.914623 -0.496596 -1.77927 0.00792551 -0.783727 -0.621055 72 38 29
0.982864 -0.498622 -1.74104 0.0335807 -0.793403 -0.60777 97 60 50
1.05979 -0.517883 -1.69415 0.141823 -0.797565 -0.586325 96 59 49
1.14152 -0.497024 -1.79109 0.127883 -0.798189 -0.588677 113 72 61
3.80836 -0.274011 -2.25658 -0.76028 -0.490953 -0.42537 152 143 125
3.79997 -0.236124 -2.67448 -0.912324 -0.149558 -0.381179 159 148 129
3.86089 -0.205119 -2.88073 -0.920114 0.0926742 -0.380529 106 93 76
3.84972 -0.200046 -2.91373 -0.919348 0.0967207 -0.381372 110 97 79
3.8402 -0.205393 -3.07388 -0.901288 -0.23408 -0.364536 83 74 58
3.92279 -0.152887 -3.35127 -0.92687 -0.0948502 -0.363202 131 113 95
3.92234 -0.153942 -3.39057 -0.927607 -0.0787771 -0.365157 144 127 109
3.93482 -0.148382 -3.5947 -0.950907 -0.171877 -0.257361 159 153 136
3.91446 -0.126694 -3.80262 -0.941272 0.0722058 -0.329837 150 140 122
3.91906 -0.130532 -3.75214 -0.930978 -0.00925492 -0.364959 148 136 115
3.95676 -0.123669 -3.94505 -0.947023 -0.0699299 -0.313459 175 166 147
3.97598 -0.0850733 -4.01654 -0.917393 0.26504 -0.29689 83 70 53
3.97689 -0.0785947 -4.09014 -0.983506 -0.0238656 -0.179292 41 28 13
4.0448 -0.0749863 -4.30531 -0.980862 -0.0237842 -0.193248 140 130 115
4.04127 -0.0743957 -4.31748 -0.955779 -0.0357855 -0.2919 137 122 108
4.09674 -0.0664003 -4.40196 -0.946026 -0.100735 -0.308039 93 84 71
4.07849 -0.0373581 -4.55622 -0.98099 0.112219 -0.158319 36 36 29
0.207539 -0.471013 -1.76841 0.0145108 -0.763074 -0.646148 159 140 120
0.569142 -0.446256 -1.73449 0.00483002 -0.627883 -0.778292 143 134 123
0.890282 -0.456767 -1.7522 0.224379 -0.80743 -0.54563 101 58 49
2.83932 -0.35726 -1.46229 0.236084 -0.738193 -0.63193 87 62 40
3.15409 -0.346964 -1.44622 0.707517 -0.235079 -0.666452 85 73 58
3.78115 -0.225341 -2.16124 -0.720818 -0.539799 -0.434784 156 142 123
3.75917 -0.19127 -2.57463 -0.888227 -0.238809 -0.392457 156 143 124
3.86487 -0.150884 -3.1205 -0.887697 -0.244016 -0.390449 143 127 107
3.86071 -0.145735 -3.14775 -0.901688 -0.195673 -0.385579 142 127 107
3.9286 -0.0998034 -3.50357 -0.92968 -0.00842514 -0.368271 115 98 79
3.92989 -0.0993238 -3.71835 -0.921482 -0.232811 -0.310918 115 109 90
3.9338 -0.086877 -3.88091 -0.939333 -0.0108383 -0.342836 129 121 102
3.99891 -0.0440613 -4.1511 -0.951479 0.0978654 -0.291735 90 65 50
4.03225 -0.0416583 -4.2343 -0.981035 -0.0367495 -0.190317 106 84 69
4.06751 -0.0297939 -4.40694 -0.983836 -0.0538048 -0.170798 42 42 33
-2.7817 -0.557592 -2.26804 -0.106505 -0.401136 -0.909806 34 36 25
0.13957 -0.446014 -1.91978 0.193525 -0.806695 -0.558383 131 105 79
1.77583 -0.329412 -1.61256 0.244187 -0.802353 -0.544613 129 118 100
3.0175 -0.296074 -1.53618 0.785693 -0.197102 -0.586377 114 91 73
3.12989 -0.302715 -1.41535 0.761606 0.0340573 -0.647145 60 47 33
3.24284 -0.287956 -1.42959 0.639041 -0.169352 -0.750297 123 115 99
3.71104 -0.199748 -2.00139 -0.131361 -0.832423 -0.538345 137 121 103
3.78543 -0.160056 -2.69832 -0.804768 -0.431999 -0.407094 159 146 128
3.8317 -0.153834 -2.79996 -0.920094 0.0630694 -0.386588 120 105 87
3.86446 -0.106141 -2.89984 -0.91607 0.120702 -0.382423 101 87 68
3.90258 -0.118245 -3.24938 -0.911654 -0.0888569 -0.401238 99 80 59
3.92394 -0.0724945 -3.33744 -0.914601 -0.0156105 -0.404055 115 96 77
3.94473 -0.0776179 -3.4126 -0.885132 -0.302375 -0.35371 133 118 101
3.92904 -0.0695292 -3.54386 -0.844904 -0.372206 -0.384187 128 114 95
3.91982 -0.0667926 -3.73524 -0.916245 -0.217415 -0.33649 98 90 72
3.9008 -0.0519776 -3.84983 -0.801134 -0.386009 -0.457363 102 90 70
3.9214 -0.0509672 -3.73351 -0.944924 -0.0443091 -0.324277 82 75 57
3.95777 -0.0491005 -3.93193 -0.936826 -0.0245638 -0.348933 114 101 82
4.01716 -0.00986167 -4.21017 -0.933264 -0.0330536 -0.357667 100 76 57
4.04258 -0.00588858 -4.30533 -0.957724 -0.0306939 -0.286045 171 156 139
4.07211 -0.00191914 -4.50405 -0.986042 0.0662454 -0.152753 173 173 162
2.99959 -0.211668 -1.54725 0.724542 -0.248959 -0.642697 98 73 55
3.05582 -0.213876 -1.49507 0.776864 0.288617 -0.559627 121 101 84
3.33727 -0.180357 -1.4377 0.609682 -0.496543 -0.617845 17 10 3
3.71699 -0.160207 -2.05114 -0.184153 -0.820351 -0.541399 111 95 77
3.77075 -0.143096 -2.3228 -0.79704 -0.438269 -0.415509 131 113 93
3.79703 -0.108942 -2.70477 -0.891736 -0.028511 -0.451657 134 116 97
3.86132 -0.0554353 -3.21141 -0.920378 0.117122 -0.373077 158 140 120
3.86339 -0.0558809 -3.19898 -0.921787 0.106397 -0.372811 157 140 120
3.87714 -0.0865477 -3.0953 -0.910582 -0.168327 -0.377501 119 104 85
3.94092 -0.0447814 -3.35767 -0.879929 -0.294802 -0.372581 135 118 100
3.92757 -0.0373954 -3.49162 -0.921987 -0.180858 -0.34239 106 92 75
3.94828 -0.0233362 -3.71361 -0.957573 -0.137404 -0.253328 50 50 37
3.91012 -0.0178883 -3.88409 -0.939115 -0.170641 -0.298235 44 41 24
3.90501 -0.0181894 -3.86442 -0.911474 -0.227128 -0.34297 61 53 35
3.93271 -0.0138612 -3.86949 -0.94621 -0.00140226 -0.323549 82 73 56
3.98423 -0.0114851 -3.97287 -0.951242 0.0362019 -0.306314 63 44 28
3.99966 -0.00602633 -3.99378 -0.93265 -0.18302 -0.310914 78 55 39
4.05163 0.0336335 -4.47805 -0.913043 0.244162 -0.326705 179 175 155
4.05082 0.0336559 -4.46547 -0.947339 0.0501119 -0.316287 181 175 154
4.06954 0.0389606 -4.52855 -0.98318 -0.0435334 -0.177377 176 176 154
-3.28137 -0.448629 -2.26734 0.172132 -0.719576 -0.672742 113 126 122
0.269368 -0.29268 -1.78906 -0.536341 -0.227442 -0.812778 102 90 74
3.65032 -0.119221 -1.6457 -0.849989 -0.313554 -0.423323 94 79 67
3.73894 -0.114301 -2.03118 -0.921261 0.0652723 -0.383428 84 66 48
3.73866 -0.0553315 -2.31459 -0.841529 -0.344044 -0.416488 85 61 42
3.76509 -0.0581462 -2.20795 -0.78996 -0.454684 -0.41137 87 61 42
3.7679 -0.0623165 -2.10475 -0.909027 -0.149765 -0.388897 86 61 42
3.75816 -0.0659954 -2.54023 -0.78993 -0.45405 -0.412127 85 60 41
3.77606 -0.0750812 -2.64332 -0.906495 -0.183931 -0.380047 94 70 52
3.82806 -0.0557361 -2.77469 -0.915872 -0.0997399 -0.388884 135 116 97
3.84737 -0.0485651 -2.96718 -0.922421 -0.135437 -0.361657 157 143 125
3.88378 -0.0330907 -3.25257 -0.900908 -0.192195 -0.389134 123 103 83
3.91988 -0.00571974 -3.37109 -0.821125 -0.343584 -0.455744 128 108 89
3.92172 0.00270832 -3.38948 -0.878174 -0.299783 -0.372747 142 123 104
3.94451 0.00880261 -3.55816 -0.920496 -0.204217 -0.33314 139 129 111
3.91481 0.0102927 -3.70331 -0.9127 -0.233013 -0.335684 127 119 102
3.92895 0.0239562 -3.71684 -0.946909 0.020549 -0.320843 156 148 129
3.96012 0.0236223 -3.90306 -0.92627 -0.0527436 -0.373152 141 126 105
3.99892 0.0172191 -4.02521 -0.916255 0.229666 -0.328222 90 65 48
3.9939 0.0382548 -4.11715 -0.949562 -0.0862948 -0.301472 96 68 49
3.99562 0.0317319 -4.22014 -0.391893 0.480059 -0.784833 94 69 48
4.03961 0.0335283 -4.24287 -0.560325 0.405966 -0.721961 127 106 84
4.05227 0.0551431 -4.3548 -0.959911 -0.000300348 -0.280304 176 166 144
0.117293 -0.25846 -1.93731 0.187849 -0.826967 -0.529941 127 101 73
2.39729 -0.146746 -1.67022 0.00183161 -0.839376 -0.543548 123 91 64
3.08608 -0.0746088 -1.41517 0.774841 0.0653186 -0.628772 134 117 98
3.67793 -0.0201705 -2.2011 -0.82449 -0.364593 -0.432768 97 77 59
3.74019 -0.00978376 -2.37663 -0.796626 -0.438366 -0.416199 85 59 39
3.78505 -0.00922652 -2.71568 -0.908126 -0.0966973 -0.407377 100 77 56
3.83817 0.000108715 -2.95958 -0.934181 0.0394079 -0.354616 181 166 144
3.8759 -0.0113608 -2.90602 -0.916505 0.121267 -0.381199 179 163 141
3.86261 0.00371977 -3.07841 -0.908379 -0.173813 -0.380311 166 149 127
3.8628 0.0277268 -3.01462 -0.907686 -0.175801 -0.381052 130 114 91
3.87494 0.0122426 -3.29638 -0.682236 -0.516362 -0.517615 111 91 69
3.9216 0.0451286 -3.47842 -0.933813 -0.100171 -0.343451 170 157 136
3.97804 0.0622377 -3.97549 -0.862975 -0.325807 -0.386165 73 55 33
4.01303 0.0608575 -4.20217 -0.332607 0.777794 -0.533301 94 71 48
4.0348 0.0816306 -4.28219 -0.583266 0.0663044 -0.809571 129 112 88
4.07825 0.0898883 -4.39092 -0.830052 0.46772 -0.303731 130 119 92
0.587897 -0.173856 -1.70966 -0.478705 -0.488666 -0.729416 85 75 64
1.8682 -0.10763 -1.59777 0.893533 -0.167036 -0.416771 163 148 127
2.44943 -0.0332251 -1.90881 0.0505271 -0.850033 -0.524301 122 92 65
2.44788 -0.0343895 -1.86537 0.0239206 -0.850992 -0.524634 120 90 63
3.72189 0.0182752 -2.6469 -0.786811 -0.452568 -0.419655 84 58 37
3.74831 0.0146242 -2.44697 -0.847295 -0.336954 -0.410552 83 58 37
3.78116 0.0421248 -2.77136 -0.621718 -0.566098 -0.541296 105 84 61
3.84212 0.0373554 -2.85086 -0.877966 -0.242758 -0.412606 134 118 94
3.84292 0.0414587 -2.88527 -0.921072 -0.139499 -0.363548 124 109 85
3.86176 0.0568443 -3.28102 -0.721438 -0.474326 -0.504522 88 68 45
3.89006 0.0632067 -3.33269 -0.77537 -0.408955 -0.481204 93 74 50
3.8928 0.0546283 -3.41722 -0.913451 -0.241972 -0.327196 104 83 65
3.95114 0.0656886 -3.79556 -0.948828 0.00963099 -0.315647 140 131 109
3.95473 0.0963505 -3.90005 -0.919929 -0.0766751 -0.384514 65 54 28
4.0059 0.08685 -4.21659 -0.914054 -0.269571 -0.303045 92 69 46
4.06288 0.10172 -4.33509 -0.911731 0.1748 -0.37174 103 90 62
4.0427 0.102113 -4.35283 -0.679984 -0.274188 -0.680032 104 91 64
4.07939 0.104958 -4.48651 -0.956363 -0.177024 -0.23245 106 93 63
3.66932 0.0728189 -1.46837 -0.899016 -0.0157678 -0.437632 77 70 45
3.73723 0.0471048 -1.98593 -0.848314 -0.329376 -0.414577 75 59 36
3.72946 0.0476279 -2.0293 -0.833373 -0.360451 -0.419005 75 59 36
3.73274 0.0841529 -2.70586 -0.891435 -0.202069 -0.4056 79 63 38
3.8391 0.106714 -2.93549 -0.80412 -0.270063 -0.529582 79 68 40
3.85782 0.0929669 -2.95442 -0.925635 -0.12574 -0.356916 80 67 41
3.87514 0.0929433 -2.8961 -0.926193 -0.124356 -0.355953 78 67 41
3.83108 0.100745 -2.96794 -0.754524 -0.435554 -0.490903 77 66 39
3.82965 0.101221 -2.99142 -0.862413 -0.318154 -0.393727 77 65 38
3.83498 0.0899157 -2.93952 -0.833343 -0.405637 -0.375497 74 61 36
3.84398 0.08277 -3.25533 -0.772783 -0.412343 -0.482472 85 68 43
3.84443 0.110182 -3.46104 -0.634806 -0.452054 -0.626633 83 70 43
3.8791 0.114304 -3.51233 -0.320334 -0.765639 -0.557839 88 78 51
3.93245 0.0981281 -3.62414 -0.422276 -0.765038 -0.486209 102 93 64
4.02818 0.111486 -4.01187 -0.916399 -0.270401 -0.295121 85 69 45
4.0352 0.128885 -4.2995 -0.909016 -0.199279 -0.366029 82 73 43
4.04505 0.141346 -4.3994 -0.719351 -0.514889 -0.466288 76 71 39
2.02479 0.0252936 -1.768 0.200423 -0.842927 -0.499305 104 86 55
3.73382 0.10927 -2.16653 -0.796298 -0.449968 -0.404275 77 68 40
3.73791 0.117634 -2.28419 -0.80643 -0.431629 -0.404186 79 72 43
3.74823 0.111245 -2.73895 -0.827613 -0.259031 -0.497957 80 68 40
3.74766 0.112017 -2.83599 -0.447222 -0.67372 -0.588297 77 66 38
3.78128 0.10528 -2.84381 -0.564594 -0.609198 -0.556877 77 64 37
3.8001 0.116312 -3.38986 -0.906195 0.176705 -0.384168 83 71 44
3.93467 0.152556 -3.64631 -0.673854 -0.623817 -0.395946 78 74 42
4.00834 0.154324 -4.14716 -0.888889 -0.32177 -0.326097 70 69 39
0.370465 0.0105647 -1.73441 0.356042 0.769285 -0.530504 137 132 107
1.9749 0.103186 -2.0639 0.14337 -0.846455 -0.512796 106 99 60
2.02667 0.0744533 -1.67871 0.358523 -0.749505 -0.55651 116 105 70
2.02667 0.0744533 -1.67871 0.358523 -0.749505 -0.55651 115 104 68
2.62397 0.113797 -1.76499 0.125787 -0.843121 -0.522805 106 98 60
2.88626 0.120528 -2.04974 -0.563858 -0.628055 -0.536293 95 91 56
3.16749 0.110833 -1.65962 0.290024 -0.790338 -0.539677 88 84 50
3.60308 0.136968 -1.44099 -0.588826 -0.670755 -0.450967 82 82 49
3.66087 0.141841 -1.87762 -0.868475 -0.283118 -0.406935 83 82 49
3.68047 0.169764 -3.37298 -0.113913 -0.819622 -0.561466 76 74 40
3.71611 0.154014 -3.50479 -0.731626 -0.432547 -0.526902 81 77 45
3.71611 0.154014 -3.50479 -0.731626 -0.432547 -0.526902 81 77 45
3.80449 0.165025 -3.46546 -0.917179 -0.0997905 -0.385778 76 72 40
3.83076 0.158472 -3.41857 -0.928005 -0.156461 -0.338123 80 77 46
3.86447 0.159018 -3.4595 -0.88553 -0.272668 -0.376151 76 72 40
3.88266 0.164136 -3.56264 -0.667071 -0.628726 -0.399648 75 72 39
3.99421 0.182182 -4.04029 -0.843879 -0.342345 -0.413121 65 69 36
-3.1308 -0.0683932 -2.31459 0.177439 -0.769641 -0.613325 86 93 87
-0.879185 0.0474341 -1.95072 0.808183 0.567467 -0.15755 74 67 45
0.193688 0.0649409 -1.94491 -0.0513145 -0.813806 -0.578867 88 79 47
3.21733 0.176099 -1.34258 0.0382946 0.798969 -0.600151 114 114 74
-1.33574 0.0705626 -1.91997 0.0183229 0.772167 -0.635155 72 70 45
-0.625925 0.0645701 -2.19936 0.882654 -0.362799 -0.29883 85 72 48
-0.483304 0.110815 -1.9724 0.863561 -0.1589 -0.478553 92 82 53
3.89829 0.239843 -4.23357 -0.918068 -0.194036 -0.345691 85 90 53
3.99744 0.22291 -4.11228 -0.892808 -0.293862 -0.341379 67 72 37
-2.63064 0.048261 -2.863 0.0513349 -0.682648 -0.728942 70 70 55
-2.26735 0.0859839 -2.14122 0.94091 -0.232917 -0.245842 66 66 47
-1.79488 0.106037 -2.12984 0.1311 -0.820526 -0.556372 79 80 57
-1.57292 0.105375 -2.03365 -0.0686161 -0.101618 -0.992454 95 97 71
-1.04983 0.0958611 -2.10221 0.928858 -0.184706 -0.321102 80 76 49
-0.229708 0.182843 -1.89877 0.527145 0.342285 -0.777792 125 127 92
0.793912 0.144971 -4.50421 0.0268467 -0.820612 -0.570855 113 110 76
0.836722 0.146996 -4.41323 0.0973065 -0.835543 -0.54074 112 112 78
7.41149 -12.1756 0.33803 -0.958353 0.164141 -0.233702 169 152 137
6.14911 -8.52601 -1.9013 -0.926184 0.274826 -0.258173 157 144 130
6.16542 -8.33393 -2.01659 -0.949803 0.189779 -0.248714 150 141 127
-3.80125 -15.4309 0.0408359 -0.080717 0.947088 0.310659 125 106 90
-3.7901 -15.4417 0.0799427 -0.127991 0.620511 -0.773682 132 112 96
-3.18273 -14.7291 -0.223403 -0.437423 0.891365 0.11887 165 143 128
-3.16938 -15.5071 0.118034 -0.0226184 0.919499 0.392442 147 120 105
-2.89879 -15.4213 0.181966 0.172827 0.982367 -0.0713143 168 144 128
-2.88781 -15.391 0.163001 0.016975 0.944245 0.328804 168 144 128
7.05329 -11.5735 0.0994505 -0.350578 0.876436 0.330083 176 157 141
6.48105 -9.4699 -1.26386 -0.934336 0.229591 -0.272589 158 144 128
6.22313 -8.29615 -1.92657 -0.96699 0.131698 -0.218145 147 140 129
5.26044 -5.65442 -3.58554 -0.574969 0.74722 0.333277 135 138 126
0.315707 -2.35136 -6.41404 0.874085 0.456734 0.165436 152 161 169
6.28864 -8.92738 -1.45305 -0.925601 0.220716 -0.307485 158 145 132
6.07757 -8.24389 -1.88253 -0.965029 0.134487 -0.225016 158 148 138
6.03282 -8.13254 -1.94509 -0.934026 0.319454 -0.159827 153 143 131
5.90916 -7.84547 -2.11519 -0.964166 0.210719 -0.161185 151 140 127
5.67655 -6.91674 -2.72464 -0.572006 0.772166 0.27671 145 142 130
4.88447 -4.83832 -4.04906 -0.696005 0.709831 0.10825 131 129 116
4.83268 -4.51013 -4.22659 -0.879975 0.320925 -0.350217 120 121 107
4.63763 -3.86014 -4.66321 -0.96028 0.256616 -0.109591 116 122 112
4.58374 -3.75163 -4.74687 -0.936414 0.315241 -0.154115 112 115 103
4.50383 -3.50475 -4.89693 -0.932228 0.348903 -0.0960053 115 120 110
4.57582 -3.6198 -4.81554 -0.919661 0.361295 -0.153912 95 94 82
4.4749 -3.45657 -4.932 -0.958308 0.279024 -0.0615766 115 121 110
4.14815 -2.03309 -5.81522 -0.982692 0.104924 -0.152667 112 107 102
0.326208 -2.37661 -6.36664 0.941162 0.32171 0.103522 135 137 140
0.453026 -2.34086 -6.37312 0.546802 0.716951 0.432422 142 140 131
-6.97673 -15.4756 -0.129313 -0.0261583 0.934826 0.35414 93 87 73
4.69072 -4.15346 -4.44969 -0.892879 0.327294 -0.309265 117 119 106
4.11937 -2.23121 -5.66788 -0.935883 0.129559 -0.327625 103 88 79
4.15108 -2.04234 -5.78485 -0.958242 0.217561 -0.185576 100 90 87
4.14405 -1.94873 -5.83491 -0.976914 0.143693 -0.158086 78 69 61
0.300636 -2.36524 -6.34363 0.722029 0.410941 -0.556598 157 166 175
0.307774 -2.47561 -6.25868 0.957512 0.255241 0.134251 140 139 132
4.10694 -2.43127 -5.52389 -0.932115 -0.0304116 -0.360883 144 108 90
4.12873 -2.35851 -5.56149 -0.93359 0.186122 -0.306218 193 171 158
4.13146 -2.24996 -5.60714 -0.953686 0.205872 -0.219315 98 84 76
4.15811 -1.75892 -5.90297 -0.929514 -0.147055 -0.338199 74 59 49
0.324385 -2.4123 -6.28226 0.732425 0.625249 0.269478 138 138 136
4.12144 -2.46196 -5.46823 -0.919535 -0.0799737 -0.384785 142 109 91
4.09954 -2.3615 -5.51861 -0.952812 0.0990885 -0.286933 148 117 100
4.11324 -2.35967 -5.50275 -0.94162 -0.0173689 -0.33623 167 138 122
4.16345 -2.19953 -5.60961 -0.791926 0.505341 -0.342761 89 78 74
4.14788 -2.00898 -5.7322 -0.971781 0.185074 -0.146252 84 75 70
4.15303 -1.65471 -5.93814 -0.980497 0.112107 -0.161424 182 161 146
0.283267 -2.33765 -6.28503 0.937857 0.322026 0.129323 197 216 231
0.289301 -2.4159 -6.25988 0.97058 0.207591 0.121983 134 138 141
4.12183 -2.29255 -5.53906 -0.896228 0.296768 -0.329703 157 135 122
4.13934 -2.22143 -5.56316 -0.950395 0.223553 -0.216272 97 82 73
4.19168 -2.06157 -5.64129 -0.946263 -0.0383577 -0.321115 74 64 55
4.17033 -1.9059 -5.7661 -0.953223 -0.083233 -0.290582 85 74 63
4.17033 -1.9059 -5.7661 -0.953223 -0.083233 -0.290582 85 75 64
4.17033 -1.9059 -5.7661 -0.953223 -0.083233 -0.290582 85 75 64
4.16815 -1.71599 -5.87039 -0.926524 -0.0384216 -0.37427 168 147 132
4.15443 -1.66931 -5.92162 -0.964979 0.138902 -0.222533 182 159 142
4.14864 -1.52646 -6.00636 -0.894286 0.270642 -0.356377 174 156 134
0.272102 -2.2712 -6.29454 0.961587 0.273426 0.0242394 201 213 222
4.08266 -2.41023 -5.43468 -0.867033 0.312787 -0.387838 138 102 83
4.1238 -2.31211 -5.46014 -0.956448 0.10849 -0.270992 185 162 149
4.14459 -2.229 -5.53711 -0.915785 0.197493 -0.349765 99 85 77
4.17716 -1.96917 -5.68323 -0.9498 -0.0237567 -0.311953 80 67 56
4.15524 -1.82108 -5.77722 -0.825774 0.530858 0.19049 104 96 86
4.14873 -1.74526 -5.8252 -0.951671 -0.00655422 -0.30705 119 98 84
4.1547 -1.70968 -5.84124 -0.916407 0.397204 -0.0492719 184 162 150
4.14252 -1.69746 -5.87064 -0.961389 0.208764 -0.179299 178 157 144
4.16896 -1.62357 -5.91293 -0.947746 0.210984 -0.239297 174 149 128
4.1775 -1.62174 -5.91149 -0.936915 0.249943 -0.244376 174 149 128
4.16101 -1.55389 -5.94928 -0.944043 0.151488 -0.292976 173 151 129
0.248331 -2.25453 -6.28178 0.998386 0.0550541 0.0139603 183 190 198
0.0790546 -2.76605 -5.97976 0.859288 0.483727 0.16623 137 134 125
-0.008638 -3.01053 -5.8349 0.97112 0.217132 0.098897 111 110 97
4.18233 -2.20065 -5.5056 -0.794274 0.070306 -0.603478 75 63 57
4.16908 -2.18505 -5.4996 -0.821699 0.016683 -0.569678 83 69 61
4.17915 -2.12287 -5.53533 -0.871527 0.0224096 -0.489835 97 84 76
4.21632 -2.10806 -5.55735 -0.902409 -0.0301905 -0.429822 82 72 63
4.17525 -1.89769 -5.68363 -0.949849 -0.0249817 -0.311711 91 77 65
4.15371 -1.6472 -5.86794 -0.947008 0.187257 -0.260981 176 150 130
4.16486 -1.65804 -5.84429 -0.921104 0.292363 -0.257082 176 150 129
4.15187 -1.51365 -5.94339 -0.848234 0.490993 -0.198556 174 159 140
0.246149 -2.18751 -6.29401 0.975448 0.171448 -0.13823 98 97 107
0.260667 -2.34383 -6.17645 0.576317 0.761227 0.297308 195 217 231
0.0368013 -2.89017 -5.85111 0.99738 -0.0549354 -0.047066 111 110 98
4.1398 -2.19445 -5.48705 -0.944695 0.162601 -0.284802 100 84 74
4.13337 -2.19531 -5.48059 -0.954275 0.130682 -0.268852 107 89 77
4.14802 -2.11972 -5.49959 -0.960749 0.113201 -0.253273 87 72 64
4.16311 -2.10557 -5.52627 -0.885007 -0.0745216 -0.459574 93 79 69
4.17212 -2.04155 -5.56506 -0.914793 -0.0139388 -0.403682 101 87 76
4.17305 -2.0289 -5.57624 -0.94179 -0.0125256 -0.335969 89 77 67
4.14742 -1.79788 -5.73239 -0.926533 -0.145243 -0.347047 82 65 53
4.15149 -1.75533 -5.75214 -0.920645 0.15029 -0.360314 154 131 115
4.15716 -1.58666 -5.87458 -0.586135 0.755834 0.291825 164 149 129
0.263122 -2.14278 -6.26787 0.970028 0.204343 -0.131492 91 83 93
0.259828 -2.21412 -6.24479 0.99829 0.0555569 0.0182056 118 123 132
0.25816 -2.24541 -6.21419 0.772865 0.528292 0.35155 172 189 203
0.281781 -2.4831 -6.0285 0.82385 0.566557 -0.0168362 148 142 137
-0.0262202 -2.96886 -5.75744 0.907256 0.374606 0.191199 112 110 98
4.12815 -2.00677 -5.54536 -0.987508 0.0680435 -0.142117 144 133 124
4.16194 -1.70319 -5.75489 -0.915879 0.206869 -0.34405 181 155 135
4.15068 -1.62332 -5.81569 -0.975412 0.171476 -0.138448 177 154 136
4.16396 -1.46939 -5.92387 -0.943386 0.176402 -0.280901 164 143 123
4.05884 -2.52036 -5.15887 -0.914064 0.0483243 -0.40268 110 87 71
4.14055 -1.72769 -5.70415 -0.969496 0.000913367 -0.245106 189 167 149
4.16354 -1.63968 -5.779 -0.944537 0.184337 -0.271791 175 149 129
4.15206 -1.55994 -5.83072 -0.945403 0.201217 -0.25637 164 145 126
0.243941 -2.09148 -6.25643 0.976168 0.193654 -0.097951 94 83 96
0.177987 -2.64816 -5.86808 0.920063 0.328011 0.214227 133 131 122
4.13624 -1.84421 -5.61681 -0.987282 0.00118688 -0.158977 160 147 132
4.14538 -1.86193 -5.57408 -0.934785 0.352536 -0.04354 159 141 126
4.15857 -1.74903 -5.66417 -0.972354 0.182135 -0.146132 189 167 148
4.15636 -1.67943 -5.70212 -0.944257 0.225764 -0.239601 177 151 129
4.16569 -1.57793 -5.79045 -0.586572 0.761343 0.276205 156 143 125
0.263765 -1.94467 -6.3014 0.991476 0.0463937 -0.121746 115 117 136
0.229081 -2.14956 -6.18866 0.893091 0.433228 0.121253 89 77 87
6.45058 -9.34873 0.446962 -0.960955 0.145412 -0.235416 153 146 133
4.13875 -1.77052 -5.61989 -0.986649 0.0673418 -0.148286 190 173 154
0.270744 -1.97573 -6.24738 0.989976 0.105546 -0.0938478 182 174 185
0.191653 -2.5685 -5.83343 0.946794 0.1927 0.257775 144 143 139
-0.103986 -3.04815 -5.50229 0.99956 -0.0220909 0.0197718 113 110 98
-3.9519 -10.522 -0.597573 -0.241586 0.299056 -0.923148 116 105 86
0.773089 -7.00116 -2.30538 -0.718552 0.43339 -0.543927 144 130 113
4.14891 -1.64645 -5.66326 -0.923888 0.307349 -0.227964 172 148 126
0.262175 -2.64859 -5.70664 0.606316 -0.240875 -0.757866 82 74 61
-0.728392 -9.10076 -0.835968 0.962367 0.127177 -0.240158 231 222 213
4.12854 -1.50409 -5.76266 -0.922342 0.242852 -0.300512 168 145 125
4.16136 -1.43674 -5.79926 -0.919032 0.249325 -0.305314 150 127 107
0.272318 -1.94019 -6.20101 0.998491 0.0548082 -0.00332321 186 178 184
0.189099 -2.65936 -5.66863 0.974388 0.191055 0.1186 118 114 102
5.77865 -7.27573 -0.689352 -0.906874 0.282424 -0.312755 138 135 123
4.03532 -2.2877 -5.13322 -0.947273 0.0783894 -0.310691 121 100 85
4.14762 -1.5944 -5.65541 -0.96179 0.0230965 -0.272813 171 150 131
4.1423 -1.55785 -5.66453 -0.984262 0.157056 -0.0810082 162 146 128
4.13708 -1.45014 -5.76753 -0.670172 0.721283 0.174987 165 155 137
3.96076 -2.33656 -5.04585 -0.928138 0.0219053 -0.37159 148 117 93
5.72216 -7.37506 -0.42558 -0.62846 0.76933 0.114755 138 133 118
3.98379 -2.38961 -4.93996 -0.935379 -0.0237688 -0.352847 158 126 103
4.13688 -1.48841 -5.67977 -0.966755 0.096699 -0.236714 168 149 130
4.14021 -1.474 -5.69471 -0.981873 0.0946519 -0.164214 167 153 134
4.13807 -1.40632 -5.72341 -0.727651 0.680906 0.0830165 168 156 140
4.15544 -1.38266 -5.76433 -0.917655 0.114502 -0.380523 99 72 52
-1.6734 -10.9374 1.31696 0.536282 0.833836 -0.130842 250 244 236
4.15689 -1.58988 -5.55059 -0.963066 0.105833 -0.247595 164 144 125
4.15409 -1.51613 -5.60262 -0.94723 0.217259 -0.235699 164 142 121
4.13894 -1.42221 -5.67904 -0.980989 0.144305 -0.129754 176 160 143
4.15028 -1.42213 -5.69125 -0.961678 0.156002 -0.225474 170 149 130
0.267351 -1.75254 -6.19486 0.858072 0.202178 -0.472055 141 140 150
4.13836 -1.54247 -5.55108 -0.949006 0.223038 -0.222804 170 148 128
4.16511 -1.45995 -5.60807 -0.961378 0.0392952 -0.272414 177 155 134
4.18191 -1.39515 -5.67314 -0.842377 0.536747 0.0480008 93 71 55
4.15 -1.48695 -5.55452 -0.948382 0.220293 -0.228129 175 152 132
4.17296 -1.3922 -5.64209 -0.927739 0.051074 -0.36972 112 83 63
4.17476 -1.39848 -5.61448 -0.957388 0.181542 -0.22461 120 92 72
4.17033 -1.38886 -5.64853 -0.938421 0.0134366 -0.345233 111 83 62
0.280683 -1.72432 -6.15605 0.996422 -0.077166 -0.0344718 136 136 149
0.192674 -2.39431 -5.56597 0.671569 0.0475173 -0.739417 107 98 88
3.98211 -2.25636 -4.83718 -0.650449 0.737329 0.182377 191 160 132
4.01398 -2.31399 -4.76282 -0.5938 0.783227 0.184275 192 160 133
4.15285 -1.31595 -5.68327 -0.967779 0.187355 -0.168234 119 87 66
0.328203 -1.62589 -6.19444 0.931267 0.274362 0.239724 118 130 148
3.99048 -2.18041 -4.82774 -0.75818 0.636619 0.140992 189 157 132
4.14603 -1.45809 -5.50588 -0.942163 0.23272 -0.241187 179 155 135
4.16303 -1.37109 -5.56936 -0.93736 0.101941 -0.333114 125 96 74
4.16428 -1.37323 -5.56741 -0.952223 0.0267791 -0.304226 125 96 74
-6.48281 -14.9162 5.14186 0.922848 0.373087 0.0956937 121 114 99
-7.2324 -15.7276 5.94235 -0.164338 -0.00412121 -0.986396 123 115 101
3.98396 -2.26895 -4.69749 -0.901037 0.0468607 -0.431203 171 140 116
4.02148 -2.23435 -4.75552 -0.832502 0.546057 0.093607 191 158 134
4.15174 -1.40783 -5.4971 -0.931541 0.0550018 -0.359453 177 151 130
4.16844 -1.27748 -5.65283 -0.922992 0.0391351 -0.382824 117 81 60
4.16713 -1.31982 -5.56061 -0.935247 0.026539 -0.353 118 84 62
0.266502 -1.55125 -6.14611 0.995445 -0.0383937 -0.0872704 185 198 207
4.15326 -1.35053 -5.50443 -0.946014 0.032366 -0.322506 133 101 80
4.15972 -1.2556 -5.59079 -0.950041 0.0250032 -0.311122 115 78 58
0.25793 -1.93506 -5.72083 0.999468 0.0325595 0.00166595 135 132 131
0.238032 -2.05438 -5.57095 0.986593 0.0953331 0.132459 188 184 175
0.190226 -2.22773 -5.41943 0.906935 0.284372 0.310807 118 116 102
3.96031 -2.36057 -4.43182 -0.9312 0.20547 -0.301081 98 74 58
4.13966 -1.32223 -5.45986 -0.955016 0.0702924 -0.288104 128 93 71
4.15632 -1.29567 -5.50443 -0.951852 0.0557047 -0.301454 122 86 65
4.1347 -1.21289 -5.59328 -0.930259 0.0891674 -0.355903 117 80 60
0.259952 -1.52931 -6.07534 0.99952 -0.026131 -0.0166156 184 197 204
0.307271 -1.83913 -5.73727 0.849064 0.384735 0.362036 139 132 130
0.135318 -2.11091 -5.50066 0.983682 0.120969 0.133178 216 213 204
0.167368 -2.12558 -5.45767 0.400632 0.837445 0.371726 151 149 139
4.12571 -1.35339 -5.40595 -0.957341 0.0863812 -0.275746 131 98 76
4.1243 -1.34913 -5.41919 -0.975074 0.0735085 -0.209348 143 109 90
4.14219 -1.33137 -5.43448 -0.952614 0.129395 -0.275287 130 96 74
4.13653 -1.33337 -5.41061 -0.892974 -0.0653523 -0.445339 132 96 75
4.12759 -1.24927 -5.51583 -0.956832 0.0499919 -0.28631 123 86 65
0.123797 -2.03597 -5.50968 0.961873 0.213393 0.17107 122 116 108
0.136219 -2.06849 -5.44947 0.947647 0.317591 -0.0331991 172 167 159
0.119732 -2.23366 -5.31691 0.802603 0.550462 0.229826 120 118 105
6.25585 -12.3307 7.3358 -0.334244 -0.265137 -0.904424 179 169 159
4.02359 -2.58162 -4.04051 -0.884033 -0.126748 -0.449913 143 124 109
3.98709 -2.52549 -4.06463 -0.928058 -0.0375709 -0.370535 147 122 108
4.15679 -1.27983 -5.41572 -0.960691 0.0532396 -0.272469 128 91 71
4.16149 -1.14569 -5.59537 -0.954569 0.0279502 -0.296676 153 124 107
4.15967 -1.14591 -5.60072 -0.867707 0.107828 -0.48524 151 122 104
0.262504 -1.46592 -6.07675 0.999129 -0.0367534 -0.0197851 178 183 183
0.26507 -1.49577 -6.02624 0.998862 -0.0216831 -0.0424735 187 196 200
0.29015 -1.80372 -5.67682 0.887244 0.346632 -0.304376 126 117 111
0.0854494 -2.16192 -5.32857 0.785526 0.603458 0.13707 224 222 211
0.0889812 -2.20909 -5.25105 0.906624 0.363707 0.213891 137 134 123
4.00062 -2.02146 -4.59764 -0.954186 0.0801979 -0.288265 198 169 149
4.14484 -1.31253 -5.34741 -0.955531 0.157737 -0.249159 125 90 68
4.12393 -1.1951 -5.51834 -0.955088 -0.0152231 -0.29593 120 84 63
4.13563 -1.19475 -5.50699 -0.945605 0.0028131 -0.325304 119 84 63
4.14035 -1.11038 -5.57162 -0.740233 0.257292 -0.621173 124 94 76
4.14252 -1.12005 -5.57022 -0.717927 0.224344 -0.658977 125 95 77
4.1647 -1.09749 -5.58422 -0.565784 0.348273 -0.747392 168 143 127
4.16546 -1.0937 -5.59348 -0.85665 0.0991908 -0.506273 171 148 132
4.05695 -1.8171 -4.7199 -0.937273 0.347775 -0.0239035 180 151 125
4.12832 -1.14309 -5.49931 -0.950134 -0.00634233 -0.311779 115 81 60
0.26024 -1.43775 -6.01614 0.998782 -0.0257953 -0.0420603 112 108 103
0.258968 -1.47002 -5.95898 0.999752 -0.022141 -0.00227995 161 167 169
0.22397 -1.61588 -5.80877 0.92063 0.343344 0.185892 177 201 215
0.301149 -1.75073 -5.6311 0.575615 0.711789 0.402522 119 114 104
4.11359 -1.08004 -5.55155 -0.811935 0.200427 -0.548261 116 84 63
4.14683 -1.06792 -5.55429 -0.84317 -0.0829464 -0.53121 125 97 80
0.266786 -1.37376 -6.02394 0.999487 -0.0319329 0.00238799 129 119 111
0.300414 -1.26618 -6.11024 0.855434 0.488555 0.171891 123 116 107
4.12683 -1.04243 -5.51528 -0.961562 0.0996241 -0.255877 116 85 67
-0.828506 -8.26637 2.66643 0.885276 -0.075782 -0.45885 180 170 161
4.117 -0.988557 -5.53582 -0.868277 0.14138 -0.475506 113 81 61
-5.56153 -13.3752 8.70573 -0.373835 0.909703 -0.180796 144 131 114
4.10646 -1.01699 -5.47245 -0.981172 0.0168831 -0.192395 114 82 61
0.293796 -1.23479 -6.03112 0.824163 0.544851 0.154572 126 118 109
0.318211 -1.25328 -5.99602 0.718866 0.566262 0.40321 127 118 110
4.13384 -0.927093 -5.52325 -0.9272 -0.0384895 -0.372583 117 85 65
0.247582 -1.25904 -5.9378 0.984007 0.0373382 0.174172 125 118 109
0.336472 -1.11975 -6.07386 0.996963 0.037603 0.0681991 116 107 98
0.259283 -1.19737 -5.99574 0.837886 0.523401 0.154916 119 110 101
0.35234 -1.13914 -6.04256 0.997163 0.045231 0.0601715 121 112 103
0.27229 -1.22297 -5.95089 0.737745 0.544557 0.398986 124 117 107
4.11643 -0.902563 -5.48352 -0.942568 -0.226596 -0.245397 105 76 56
4.11898 -0.9025 -5.47345 -0.942121 0.0513408 -0.33132 113 78 58
0.224992 -1.20751 -5.91937 0.995527 0.000968194 0.0944708 121 114 105
0.356369 -1.08126 -6.0537 0.992768 0.117993 0.0221408 124 110 102
0.294078 -1.10534 -6.0121 0.998919 0.0316328 -0.0340447 118 106 96
3.82169 -2.14869 -3.52771 -0.886846 0.108665 -0.449106 143 100 77
4.1426 -0.950441 -5.27066 -0.953119 -0.0692955 -0.294556 116 82 63
0.284987 -1.12205 -5.91565 0.982053 0.178893 0.0597377 121 112 103
0.295796 -1.13718 -5.92875 0.996577 0.0246098 0.0789251 122 113 104
0.259288 -1.21027 -5.82696 0.679738 0.642263 0.354196 126 117 108
4.00406 -1.20872 -4.86453 -0.922705 -0.117435 -0.367184 162 134 107
