ply
format ascii 1.0
element vertex 677
property float x
property float y
property float z
property uchar diffuse_red
property uchar diffuse_green
property uchar diffuse_blue
end_header
-1.73693 -0.00128034 -4.63885 0 255 0
-1.72061 -0.0062728 -4.84226 0 255 0
-1.72193 -0.00471156 -4.80323 0 255 0
-1.72541 -0.00484289 -4.76588 0 255 0
-1.71883 -0.00190258 -4.88165 0 255 0
-1.73011 -0.000654055 -4.70058 0 255 0
-1.73774 0.00253941 -4.6205 0 255 0
-1.71149 -0.00621213 -4.96971 0 255 0
-1.71286 -0.000519084 -5.00548 0 255 0
-1.71175 -0.00512943 -5.07867 0 255 0
-1.71477 -0.00410816 -5.16114 0 255 0
-1.71527 -0.00408901 -5.20981 0 255 0
-1.71202 0.0055238 -5.31064 0 255 0
-1.70536 0.00569096 -5.45185 0 255 0
-1.70084 0.00267621 -5.54442 0 255 0
-1.69885 0.00299146 -5.59056 0 255 0
-1.69328 0.000341384 -5.68059 0 255 0
-1.69027 0.00487525 -5.7223 0 255 0
-1.68938 0.00353113 -5.7675 0 255 0
-1.68055 0.00287987 -5.81211 0 255 0
-1.67131 0.00487783 -5.9019 0 255 0
-1.66815 0.00627215 -5.94381 0 255 0
-1.66443 0.00725753 -5.98714 0 255 0
-1.65885 0.008618 -6.0643 0 255 0
-1.66071 0.0116431 -6.13072 255 0 255
-1.6621 0.0142823 -6.15844 0 255 0
-1.66327 0.0190461 -6.18143 0 255 0
-1.6707 0.0219424 -6.20348 255 0 255
-1.69442 0.0182164 -6.24764 0 255 0
-1.70359 0.0275341 -6.24932 255 0 255
-1.71571 0.0249958 -6.26012 0 255 0
-1.72494 0.0208671 -6.26569 0 255 0
-1.73284 0.0218425 -6.26559 255 0 255
-1.74476 0.0201228 -6.26794 255 0 255
-1.75233 0.0187516 -6.26775 0 255 0
-1.75781 0.0201877 -6.27456 0 255 0
-1.76013 0.0205193 -6.28566 0 255 0
-1.77175 0.0174258 -6.30079 0 255 0
-1.8102 0.0210365 -6.36678 0 255 0
-1.82684 0.0218397 -6.39571 0 255 0
-1.8481 0.0167541 -6.42602 255 0 255
-1.99502 0.0231816 -6.69087 255 0 255
-2.04123 0.0207199 -6.77057 0 255 0
-2.01929 0.0225742 -6.73059 255 0 255
-2.14427 0.0134308 -6.91941 255 0 255
-2.1813 0.0107294 -6.95336 0 255 0
-2.25857 0.00978487 -6.96205 0 255 0
-2.30269 0.00804561 -6.98688 0 255 0
-2.32291 0.00531187 -6.9973 0 255 0
-2.37614 0.00764096 -7.02851 0 255 0
-2.40784 0.00792122 -7.05132 0 255 0
-2.47673 0.00854303 -7.09671 0 255 0
-2.51395 0.00532598 -7.12337 0 255 0
-2.58219 0.00281998 -7.17683 0 255 0
-2.61892 0.00609305 -7.20742 0 255 0
-2.65337 0.00396113 -7.235 255 0 255
-2.72097 0.00622356 -7.30563 0 255 0
-2.68768 0.00334299 -7.27051 255 0 255
-2.8462 0.0054566 -7.43524 0 255 0
-2.8778 0.00143679 -7.46958 255 0 255
-2.93558 0.00342333 -7.52834 0 255 0
-2.96273 -0.000617706 -7.55113 255 0 255
-2.9869 0.00133581 -7.5701 0 255 0
-2.25183 0.0101044 -6.96131 0 255 0
-3.04921 0.0010069 -7.60116 0 255 0
-3.02415 -0.00184917 -7.59281 0 255 0
-3.03771 -0.00216989 -7.59762 255 0 255
-3.35891 0.00644015 -7.76775 0 255 0
-3.36757 0.00451615 -7.76412 0 255 0
-3.37436 0.00387155 -7.75998 0 255 0
-3.41701 0.00217547 -7.76571 0 255 0
-3.46476 0.00125985 -7.77061 0 255 0
-3.49762 -2.74922e-005 -7.77576 0 255 0
-3.53149 -0.00239302 -7.77878 255 0 255
-3.56916 0.00166383 -7.78523 0 255 0
-3.65604 0.00161272 -7.80241 0 255 0
-3.70289 -0.000840722 -7.81077 0 255 0
-3.74529 0.000972335 -7.82032 0 255 0
-3.78974 0.0015493 -7.83187 255 0 255
-3.92209 0.00240026 -7.86909 0 255 0
-4.01193 0.00127043 -7.89796 0 255 0
-4.14093 0.00140817 -7.93636 0 255 0
-4.22212 0.00328679 -7.96152 0 255 0
-4.26292 0.0022867 -7.96868 0 255 0
-4.30194 0.000343752 -7.97495 255 0 255
-3.352 0.00271025 -7.7739 255 0 255
-3.34097 0.00305298 -7.7783 255 0 255
-4.48298 -0.00240645 -7.95806 0 255 0
-4.525 -0.00347905 -7.95415 0 255 0
-4.55165 -0.00213674 -7.95215 0 255 0
-4.61815 -0.00306601 -7.94985 255 0 255
-4.65718 0.00126956 -7.9488 0 255 0
-4.6999 0.00102909 -7.94701 0 255 0
-4.45168 -0.00114257 -7.95695 0 255 0
-4.83021 -0.00153967 -7.94109 0 255 0
-4.87606 -0.00077441 -7.93944 0 255 0
-4.96103 0.000254185 -7.93819 0 255 0
-5.04826 -0.000156934 -7.93564 0 255 0
-5.13263 0.00187006 -7.93446 0 255 0
-5.17889 -0.000602648 -7.93558 0 255 0
-5.36413 -0.00502241 -7.93831 0 255 0
-5.44932 -0.00217548 -7.94067 255 0 255
-5.86381 -0.000871047 -7.9425 0 255 0
-6.18449 0.00252169 -7.96825 0 255 0
-6.22875 0.000243279 -7.96798 0 255 0
-6.41178 -0.00224599 -7.99146 0 255 0
-6.45781 0.00114536 -7.99379 255 0 255
-6.53778 2.63503e-005 -8.00009 255 0 255
-6.62272 -0.00157639 -8.00567 0 255 0
-6.79318 0.000184548 -8.02248 0 255 0
-6.83902 -0.00114776 -8.02894 0 255 0
-6.75131 0.00120892 -8.01892 0 255 0
-6.88661 0.00106735 -8.03539 0 255 0
-6.93078 -0.00339943 -8.04182 0 255 0
-7.01047 -0.000329407 -8.04591 0 255 0
-7.05132 -0.0017598 -8.05307 0 255 0
-7.22616 -0.0043147 -8.08262 0 255 0
-7.27019 -0.0060819 -8.08943 0 255 0
-7.40007 -0.00668767 -8.11391 0 255 0
-7.48412 -0.00325266 -8.12772 0 255 0
-7.5297 -0.00417623 -8.13758 0 255 0
-7.66548 -0.00802217 -8.17008 255 0 255
-7.70838 -0.00624748 -8.1812 0 255 0
-7.79108 -0.00626036 -8.20082 0 255 0
-7.82807 -0.00874809 -8.20799 255 0 255
-7.85657 -0.008712 -8.20983 0 255 0
-7.88557 -0.00721402 -8.21029 255 0 255
-7.9111 -0.00671576 -8.20855 0 255 0
-7.95315 -0.00472524 -8.19744 0 255 0
-7.96448 -0.00390726 -8.19048 0 255 0
-7.97823 -0.00575589 -8.17754 0 255 0
-7.98064 -0.00529753 -8.17358 0 255 0
-7.98606 -0.00419394 -8.15807 0 255 0
-8.03399 -0.00524629 -8.11353 0 255 0
-8.05435 -0.00639006 -8.10248 0 255 0
-8.10354 -0.00898744 -8.07454 0 255 0
-8.13542 -0.00960506 -8.05865 0 255 0
-8.20876 -0.00991162 -8.023 0 255 0
-8.24869 -0.00616944 -8.00177 0 255 0
-8.44816 -0.0107318 -7.89969 0 255 0
-8.4893 -0.00704548 -7.87925 255 0 255
-8.52453 -0.00665256 -7.86228 0 255 0
-8.55773 -0.00500823 -7.84312 0 255 0
-8.62953 -0.00559338 -7.79 255 0 255
-8.67718 -0.00594459 -7.72723 0 255 0
-8.6924 -0.00719548 -7.71321 0 255 0
-8.66748 -0.00768476 -7.73491 0 255 0
-8.72755 -0.00524973 -7.67631 0 255 0
-8.77357 -0.00696728 -7.62984 0 255 0
-8.85944 -0.0045896 -7.55378 0 255 0
-8.89615 -0.00477778 -7.50277 255 0 255
-8.90746 -0.00737411 -7.47985 255 0 255
-8.65704 -0.0080689 -7.7527 0 255 0
-8.66013 -0.00541623 -7.74533 255 0 255
-8.8879 -0.00136883 -7.35749 0 255 0
-8.91146 0.000397603 -7.25136 0 255 0
-8.90187 -0.00230298 -7.28412 0 255 0
-8.92197 -0.00136081 -7.21416 0 255 0
-8.88446 -0.00122752 -7.37298 0 255 0
-8.9539 -0.00371564 -7.0881 0 255 0
-8.96865 -0.00277729 -7.04428 0 255 0
-8.99133 -0.00291166 -6.95885 0 255 0
-8.93262 -0.00249532 -7.17294 0 255 0
-9.01082 -0.00156824 -6.87435 0 255 0
-9.0235 -0.00258642 -6.83232 0 255 0
-9.0467 -8.35143e-008 -6.75299 0 255 0
-9.0533 -0.00345304 -6.71576 0 255 0
-9.05814 -0.00160328 -6.68078 255 0 255
-9.08756 6.91268e-005 -6.56082 0 255 0
-9.09878 0.000184299 -6.51651 0 255 0
-9.11021 -0.0038353 -6.4755 0 255 0
-9.12416 -0.000707109 -6.42951 0 255 0
-9.1344 0.00309652 -6.38455 0 255 0
-9.14607 -0.00114218 -6.34583 0 255 0
-9.15526 0.00436591 -6.30548 0 255 0
-9.16156 0.00225776 -6.27261 0 255 0
-9.16408 0.00283992 -6.23639 0 255 0
-9.16535 0.00332323 -6.20883 255 0 255
-8.88674 -0.00220364 -7.38635 0 255 0
-9.12401 0.00375922 -6.06885 0 255 0
-9.11832 0.00320154 -6.03906 0 255 0
-9.10611 0.00459772 -5.97766 0 255 0
-9.08399 0.00174977 -5.80872 0 255 0
-9.09851 0.00694605 -5.8996 0 255 0
-9.06637 -0.000671422 -5.73138 0 255 0
-9.07528 0.00248741 -5.76938 0 255 0
-9.10105 0.00107919 -5.94139 0 255 0
-9.02826 -0.00220862 -5.55521 0 255 0
-9.03804 -0.00199051 -5.59258 0 255 0
-9.01673 0.00450529 -5.46549 0 255 0
-9.00676 0.00533014 -5.40405 0 255 0
-9.00497 0.00533159 -5.39086 0 255 0
-9.13287 0.00596511 -6.12749 0 255 0
-9.16486 0.00374623 -6.17432 0 255 0
-9.14203 0.00640253 -6.13872 0 255 0
-9.14983 -0.000499258 -6.14704 255 0 255
-8.90878 -0.005907 -7.40493 0 255 0
-8.88671 0.00368135 -5.30597 0 255 0
-8.86926 0.00380104 -5.29119 0 255 0
-8.85054 0.00132687 -5.27356 0 255 0
-8.79975 0.000511508 -5.22055 0 255 0
-8.77153 0.00173228 -5.19458 0 255 0
-8.68447 -0.00191334 -5.10662 0 255 0
-8.65305 0.00349296 -5.07582 0 255 0
-8.71408 0.00114369 -5.1384 0 255 0
-8.57061 0.00510037 -5.00232 0 255 0
-8.91259 0.00447768 -5.32965 0 255 0
-8.51738 0.00147793 -4.96724 0 255 0
-8.92334 0.0053308 -5.33135 0 255 0
-8.93563 0.0044171 -5.33116 0 255 0
-8.9452 0.00622441 -5.33047 0 255 0
-8.95763 0.00532094 -5.33362 0 255 0
-8.98041 0.00677511 -5.34372 255 0 255
-8.96697 0.00656218 -5.33419 255 0 255
-6.46894 -0.00809399 -4.63717 0 255 0
-6.46087 -0.00780739 -4.62726 0 255 0
-6.43805 -0.0105027 -4.6076 0 255 0
-6.42231 -0.00784983 -4.59191 0 255 0
-6.38185 -0.00986434 -4.54765 0 255 0
-6.35954 -0.0107561 -4.52654 0 255 0
-6.30797 -0.0121259 -4.47295 0 255 0
-6.2811 -0.0121734 -4.44343 0 255 0
-6.48839 -0.00572347 -4.67007 0 255 0
-6.49832 -0.00758773 -4.68439 0 255 0
-6.09518 -0.0123153 -4.20903 0 255 0
-6.0761 -0.00933095 -4.17369 0 255 0
-6.52471 -0.00733132 -4.71746 0 255 0
-6.54298 -0.00264305 -4.73762 0 255 0
-6.55978 -0.00324118 -4.75299 0 255 0
-6.58481 -0.00444893 -4.77554 0 255 0
-6.64302 -0.00299788 -4.81721 0 255 0
-6.67803 0.000420336 -4.83698 0 255 0
-6.79031 0.00281461 -4.886 0 255 0
-6.82676 0.000992942 -4.89967 0 255 0
-7.03855 -0.00148123 -4.97599 255 0 255
-7.1192 -0.000671696 -4.99993 0 255 0
-7.25389 -0.00107659 -5.03898 0 255 0
-7.2789 -0.00300803 -5.04339 0 255 0
-7.29499 -0.00105101 -5.04538 0 255 0
-7.31017 -0.00066725 -5.05041 0 255 0
-7.34344 0.000821089 -5.06058 0 255 0
-7.35956 -0.00168542 -5.06639 0 255 0
-7.37597 -0.00154096 -5.07536 255 0 255
-7.41946 0.000924543 -5.09188 255 0 255
-7.48056 -0.00147332 -5.10284 255 0 255
-7.49854 -0.00283769 -5.10551 0 255 0
-6.03892 -0.0135738 -4.10155 255 0 255
-6.02873 -0.0138688 -4.07342 255 0 255
-7.55603 -0.000529411 -5.11974 0 255 0
-7.63511 0.00552775 -5.12592 255 0 255
-7.67721 0.00333969 -5.12523 255 0 255
-7.71794 0.00248723 -5.12138 0 255 0
-7.75741 0.00554926 -5.1154 0 255 0
-7.88737 0.00318603 -5.09583 255 0 255
-7.92632 0.00249843 -5.08944 0 255 0
-7.96811 0.0047186 -5.07922 0 255 0
-8.01006 0.00902292 -5.07142 0 255 0
-8.12553 0.00555619 -5.05115 0 255 0
-8.19918 0.0022149 -5.03271 0 255 0
-8.16225 0.00269909 -5.04314 0 255 0
-8.23358 0.00114631 -5.02893 255 0 255
-8.27335 0.00280053 -5.01887 0 255 0
-8.30547 0.00216212 -5.01417 0 255 0
-8.33276 0.00178965 -5.01238 255 0 255
-8.35792 0.0031762 -5.00519 0 255 0
-8.37535 0.00180326 -5.00079 0 255 0
-8.39078 0.00251061 -4.99766 255 0 255
-8.40539 0.00336969 -4.99337 0 255 0
-8.40842 0.00548003 -4.98827 255 0 255
-8.41704 0.00470038 -4.97919 0 255 0
-8.42052 0.00596157 -4.97136 0 255 0
-8.42324 0.00714548 -4.96751 0 255 0
-8.42217 0.00215178 -4.9538 0 255 0
-8.43634 0.00302067 -4.95119 255 0 255
-8.44344 0.0018885 -4.94541 255 0 255
-8.45664 0.00212642 -4.94318 255 0 255
-6.0123 -0.0109901 -3.94456 0 255 0
-6.01201 -0.0118428 -3.92949 255 0 255
-6.01234 -0.0127796 -3.96107 0 255 0
-6.01605 -0.0123975 -3.98017 255 0 255
-6.02036 -0.00682545 -3.88276 0 255 0
-6.02072 -0.00753694 -3.86738 0 255 0
-6.03536 -0.00840109 -3.8113 0 255 0
-6.02976 -0.00946164 -3.83051 0 255 0
-6.03717 -0.00987119 -3.79771 0 255 0
-6.0374 -0.000558839 -3.76083 0 255 0
-6.03552 -0.00231585 -3.73603 0 255 0
-6.0379 -0.00647318 -3.70163 0 255 0
-6.03545 -0.0112944 -3.67197 0 255 0
-6.03602 -0.0127764 -3.63699 255 0 255
-6.03979 -0.0127074 -3.55317 255 0 255
-6.03996 -0.00923566 -3.46814 255 0 255
-6.04769 -0.0104078 -3.32909 0 255 0
-6.05185 -0.00855188 -3.28742 0 255 0
-6.05665 -0.0072928 -3.24476 0 255 0
-6.0684 -0.00613383 -3.20375 255 0 255
-6.08822 -0.0136921 -3.11734 0 255 0
-6.10111 -0.00656584 -3.08404 0 255 0
-6.10872 -0.00841231 -3.049 0 255 0
-6.12409 -0.00822442 -3.02157 0 255 0
-6.14906 -0.00353545 -2.96973 0 255 0
-6.16251 -0.00380336 -2.94939 255 0 255
-6.17554 -0.00462065 -2.93367 255 0 255
-6.18148 -0.00375188 -2.91997 0 255 0
-6.19104 -0.00176011 -2.90663 0 255 0
-6.21343 -0.00354084 -2.87539 0 255 0
-6.23164 -0.00456981 -2.8481 255 0 255
-6.2488 -0.00667494 -2.81983 0 255 0
-6.26981 -0.00338672 -2.79094 0 255 0
-6.28958 -0.00320905 -2.75842 255 0 255
-6.31237 -0.00245012 -2.71969 0 255 0
-6.33628 -0.0062125 -2.68421 255 0 255
-6.38753 -0.00390222 -2.60894 0 255 0
-6.51574 0.000615741 -2.43574 255 0 255
-6.57442 -0.00653091 -2.35835 0 255 0
-6.60678 -0.00453692 -2.32491 0 255 0
-6.6341 -0.00252623 -2.29479 0 255 0
-6.86494 -0.00901462 -2.02099 0 255 0
-6.89394 -0.00908657 -1.97705 0 255 0
-6.90408 -0.00753066 -1.96347 255 0 255
-6.92863 -0.0081938 -1.93335 255 0 255
-6.96989 -0.0102342 -1.91076 0 255 0
-6.98624 -0.00878846 -1.90111 0 255 0
-7.00116 -0.010537 -1.8908 0 255 0
-7.01837 -0.0113658 -1.88339 0 255 0
-7.02799 -0.00941414 -1.88249 0 255 0
-7.05281 -0.00551368 -1.87999 0 255 0
-7.08811 -0.00639293 -1.87222 0 255 0
-7.11195 -0.00981215 -1.86687 255 0 255
-7.11968 -0.00755726 -1.86669 255 0 255
-7.13405 -0.00687145 -1.86432 255 0 255
-7.1489 -0.00821437 -1.86122 0 255 0
-7.15888 -0.00807156 -1.85471 0 255 0
-7.16752 -0.00785574 -1.85085 0 255 0
-7.17159 -0.00502687 -1.8453 0 255 0
-7.18225 -0.00387245 -1.83838 0 255 0
-7.28484 -0.00761439 -1.79709 0 255 0
-7.31677 -0.00559654 -1.7853 0 255 0
-7.35745 -0.00321027 -1.77225 255 0 255
-7.41744 -0.00569032 -1.74255 255 0 255
-6.4379 0.00278485 -2.53644 0 255 0
-7.46143 -0.01563 -1.54495 0 255 0
-7.45245 -0.0107178 -1.5097 255 0 255
-7.45001 -0.00765037 -1.50859 0 255 0
-7.44253 -0.0135544 -1.50628 255 0 255
-7.50512 -0.0139526 -1.59118 0 255 0
-7.50649 -0.0128424 -1.59619 255 0 255
-7.50124 -0.0134883 -1.58883 255 0 255
-7.51089 -0.0132612 -1.60119 255 0 255
-7.49545 -0.0140853 -1.57787 0 255 0
-7.49318 -0.0146276 -1.57068 0 255 0
-7.48618 -0.0112985 -1.57036 0 255 0
-7.47835 -0.0216881 -1.55849 255 0 255
-7.5165 -0.0151447 -1.60703 0 255 0
-7.46685 -0.0181278 -1.5518 255 0 255
-7.49103 -0.00668759 -1.67728 255 0 255
-7.51936 -0.0189112 -1.65176 255 0 255
-7.52684 -0.0197053 -1.63432 255 0 255
-1.66412 0.0264207 -4.27431 255 0 255
-1.58952 0.0264575 -4.1661 255 0 255
-1.53632 0.0277654 -4.095 0 255 0
-1.50992 0.0283201 -4.05675 255 0 255
-1.48333 0.0300035 -4.02124 255 0 255
-1.09414 0.0441231 -3.58548 0 255 0
-0.831763 0.0503298 -3.40848 0 255 0
-0.869869 0.0469816 -3.43269 0 255 0
-0.797206 0.0461101 -3.38968 0 255 0
-0.762212 0.0469078 -3.36954 255 0 255
-0.653272 0.0476426 -3.30368 0 255 0
-0.577319 0.0523112 -3.25704 0 255 0
-0.537881 0.0567118 -3.23159 0 255 0
-0.437156 0.0524547 -3.17753 255 0 255
-0.360701 0.0556025 -3.1318 0 255 0
-0.34171 0.0551563 -3.12432 0 255 0
-0.327043 0.0572681 -3.11473 255 0 255
-0.315586 0.0577251 -3.1109 255 0 255
-1.02279 0.0460908 -3.53316 0 255 0
-0.269388 0.0593498 -3.0805 255 0 255
-0.235764 0.0600687 -3.05836 0 255 0
-0.213281 0.0620309 -3.05165 255 0 255
-0.191216 0.0612131 -3.03711 0 255 0
-0.138452 0.0603986 -3.00679 0 255 0
0.015147 0.0591781 -2.99043 0 255 0
0.0556824 0.0571125 -2.99038 0 255 0
0.282435 0.0581271 -3.02697 0 255 0
0.327717 0.058613 -3.03496 0 255 0
0.37133 0.0596707 -3.0454 255 0 255
0.538939 0.0579838 -3.07829 0 255 0
0.594209 0.0577537 -3.08996 255 0 255
0.629469 0.0577726 -3.09689 0 255 0
0.64259 0.0580138 -3.09967 0 255 0
0.70082 0.0580812 -3.11235 0 255 0
0.717809 0.0571038 -3.11303 0 255 0
0.756281 0.0573502 -3.12192 0 255 0
0.914594 0.0485085 -3.20823 255 0 255
0.980873 0.0544085 -3.27042 0 255 0
1.00938 0.052111 -3.30268 0 255 0
1.04252 0.0544346 -3.33866 0 255 0
1.10265 0.0544104 -3.41144 0 255 0
1.16018 0.0541261 -3.4815 0 255 0
1.27671 0.052683 -3.62152 0 255 0
1.24943 0.05786 -3.5871 0 255 0
1.34128 0.052865 -3.69458 0 255 0
1.36739 0.0526723 -3.72562 255 0 255
1.39914 0.0536511 -3.76356 0 255 0
1.45051 0.0515567 -3.82706 255 0 255
1.49583 0.0539691 -3.88371 0 255 0
1.51348 0.0509019 -3.9077 0 255 0
1.52534 0.0522459 -3.92487 0 255 0
1.53075 0.0530859 -3.93851 0 255 0
1.53875 0.0520484 -3.94994 0 255 0
1.55004 0.0528159 -3.96199 0 255 0
1.21756 0.053255 -3.55043 255 0 255
1.58323 0.0526802 -3.98772 0 255 0
1.61628 0.0526303 -4.02157 0 255 0
1.63929 0.056323 -4.0517 255 0 255
1.65846 0.0537926 -4.08121 255 0 255
1.67951 0.0663512 -4.12625 0 255 0
1.86409 0.0793443 -5.20821 255 0 255
1.88831 0.0833414 -5.28093 0 255 0
1.89996 0.0772071 -5.31492 0 255 0
1.91863 0.0769555 -5.35806 255 0 255
1.93659 0.0759203 -5.40162 255 0 255
1.98675 0.0783343 -5.53083 0 255 0
2.0028 0.0820084 -5.57463 255 0 255
2.08195 0.0859642 -5.78286 0 255 0
2.10503 0.0846595 -5.82711 0 255 0
2.14425 0.0849484 -5.91191 0 255 0
2.17995 0.0879242 -5.99808 255 0 255
2.19955 0.0879689 -6.03906 255 0 255
2.22614 0.0848232 -6.12229 255 0 255
1.85512 0.078879 -5.15029 0 255 0
1.85183 0.0785698 -5.1253 255 0 255
1.84661 0.0776686 -5.00301 255 0 255
1.83975 0.0859366 -4.96971 255 0 255
1.76786 0.0687598 -4.43902 255 0 255
1.75636 0.0737458 -4.39195 255 0 255
2.39481 0.11434 -6.67257 0 255 0
2.38709 0.108646 -6.62644 0 255 0
2.43264 0.111279 -6.80601 0 255 0
2.44306 0.113625 -6.85353 0 255 0
2.46917 0.111645 -6.94105 0 255 0
2.48037 0.116506 -6.99044 0 255 0
2.49265 0.115963 -7.03632 0 255 0
2.52519 0.119809 -7.18026 255 0 255
2.54349 0.12406 -7.27072 0 255 0
2.56533 0.124873 -7.36345 255 0 255
2.5902 0.126371 -7.50626 0 255 0
2.60677 0.125145 -7.59725 0 255 0
2.61516 0.126264 -7.64229 255 0 255
2.62119 0.125568 -7.68847 0 255 0
2.62892 0.127677 -7.73725 255 0 255
2.64481 0.129725 -7.82748 0 255 0
2.66341 0.127706 -7.9132 255 0 255
2.66915 0.126609 -7.95734 255 0 255
2.40975 0.110851 -6.71455 255 0 255
2.74008 0.133121 -8.34018 0 255 0
2.74332 0.134534 -8.38735 255 0 255
2.75302 0.136155 -8.43893 0 255 0
2.76759 0.133701 -8.58046 0 255 0
2.77141 0.135642 -8.6251 0 255 0
2.77742 0.136971 -8.67482 255 0 255
2.783 0.139887 -8.76997 0 255 0
2.78914 0.142815 -8.91313 0 255 0
2.79095 0.14395 -9.016 0 255 0
2.792 0.141458 -9.06702 255 0 255
2.7889 0.139846 -9.21298 0 255 0
2.79332 0.15081 -9.27737 0 255 0
2.77976 0.145002 -9.44645 0 255 0
2.77686 0.145028 -9.47204 0 255 0
2.7715 0.145814 -9.50651 255 0 255
2.7693 0.146262 -9.52648 0 255 0
2.76538 0.146555 -9.52703 0 255 0
2.87293 0.154087 -10.1201 0 255 0
2.87399 0.15303 -10.1325 0 255 0
2.87557 0.152773 -10.1362 0 255 0
2.87714 0.152499 -10.1411 0 255 0
2.8803 0.153869 -10.155 0 255 0
2.8807 0.151982 -10.1623 0 255 0
2.88313 0.152822 -10.1695 0 255 0
2.88437 0.152916 -10.1753 0 255 0
2.88541 0.153096 -10.1814 255 0 255
2.87143 0.153225 -10.1124 0 255 0
2.86942 0.155161 -10.1092 255 0 255
2.86746 0.155175 -10.1027 0 255 0
2.86573 0.153686 -10.0901 0 255 0
2.86496 0.153187 -10.0856 0 255 0
2.86436 0.153277 -10.082 0 255 0
2.88764 0.153284 -10.1865 0 255 0
2.88981 0.153778 -10.1931 0 255 0
2.85712 0.153277 -10.0585 0 255 0
2.86111 0.153946 -10.0719 0 255 0
2.85542 0.153834 -10.0508 0 255 0
2.85363 0.155035 -10.0457 255 0 255
2.85038 0.15578 -10.035 0 255 0
2.84458 0.155489 -10.0151 0 255 0
2.89257 0.156092 -10.206 0 255 0
2.89134 0.154695 -10.1999 0 255 0
2.89481 0.156302 -10.2148 0 255 0
2.89871 0.156182 -10.2291 0 255 0
2.89975 0.156891 -10.2359 255 0 255
2.9026 0.15339 -10.2385 0 255 0
2.84209 0.155373 -10.0087 0 255 0
2.83754 0.15344 -9.99919 0 255 0
2.83513 0.152721 -9.98874 0 255 0
2.82216 0.154378 -9.95425 0 255 0
2.9055 0.155349 -10.2484 0 255 0
2.78763 0.149537 -9.85588 0 255 0
2.7754 0.152188 -9.8209 0 255 0
2.75155 0.155208 -9.74223 255 0 255
2.73799 0.150265 -9.69422 255 0 255
2.90017 0.137969 -10.2751 0 255 0
2.88188 0.0446 -10.322 255 0 255
2.87117 -0.0233602 -10.361 255 0 255
2.86447 -0.109903 -10.4 255 0 255
2.73392 0.151056 -9.62507 0 255 0
2.73468 0.148232 -9.57203 0 255 0
2.74065 0.146952 -9.55455 255 0 255
2.75056 0.149224 -9.53423 0 255 0
-7.41446 -0.0124963 -1.4994 0 255 0
-7.40843 -0.00611334 -1.49967 0 255 0
-7.3928 -0.00109123 -1.50422 0 255 0
-7.38154 -0.00190847 -1.50243 0 255 0
-7.38331 -0.000135858 -1.50524 0 255 0
-7.37954 -0.00146439 -1.51149 255 0 255
-7.33755 0.00173941 -1.51304 255 0 255
-7.31423 0.00429497 -1.499 0 255 0
-7.24667 -0.0027722 -1.4493 0 255 0
-7.23083 0.00644316 -1.43705 0 255 0
-7.19286 -0.00195681 -1.40502 0 255 0
-7.15851 0.000911954 -1.39172 0 255 0
-7.12409 -2.18477e-007 -1.36556 0 255 0
-7.0198 0.000411672 -1.28468 255 0 255
-6.98574 0.0015209 -1.25891 0 255 0
-6.95265 -0.00100219 -1.23516 0 255 0
-6.92391 0.00314333 -1.21211 255 0 255
-6.85184 -0.00361864 -1.15291 0 255 0
-6.71143 0.00023551 -1.04495 255 0 255
-6.701 9.88103e-005 -1.04517 255 0 255
-6.6887 -0.00513999 -1.04681 0 255 0
-6.67828 -0.00601495 -1.04751 255 0 255
-6.6651 -0.00126709 -1.06615 0 255 0
-6.66831 0.00996461 -1.08033 0 255 0
-6.66882 0.0120888 -1.07867 0 255 0
-6.64823 0.00203631 -1.08115 255 0 255
-6.62259 0.00169946 -1.07511 0 255 0
-6.60844 0.00289041 -1.07193 255 0 255
-6.56201 -0.00125918 -1.05614 0 255 0
-6.47152 0.00629454 -1.03793 255 0 255
-6.39457 0.00203658 -1.01187 0 255 0
-6.22259 3.26028e-008 -0.958147 0 255 0
-6.26637 -0.00156407 -0.975509 255 0 255
-6.18297 -0.00386751 -0.95043 255 0 255
-6.08338 0.000591823 -0.932075 255 0 255
-6.04889 0.00375574 -0.930471 0 255 0
-6.02589 0.00248602 -0.932629 0 255 0
-6.00902 0.00487339 -0.933707 255 0 255
-5.98565 0.00599933 -0.935041 255 0 255
-5.97584 0.00776249 -0.94262 0 255 0
-5.96265 0.00600062 -0.951032 0 255 0
-5.92136 0.00758303 -0.954739 0 255 0
-5.89997 0.00373781 -0.956709 0 255 0
-5.88239 0.009761 -0.953199 0 255 0
-5.8192 0.00925353 -0.960594 255 0 255
-5.74289 0.00957665 -0.960806 255 0 255
-5.70464 0.0107708 -0.960032 0 255 0
-5.66393 0.0121231 -0.962779 255 0 255
-5.62447 0.0125429 -0.957644 255 0 255
-5.58556 0.0169205 -0.956019 0 255 0
-5.5 0.0179453 -0.950904 255 0 255
-5.35486 0.0305165 -0.930277 255 0 255
-5.32249 0.0339702 -0.92486 0 255 0
-5.2256 0.013006 -0.945398 255 0 255
-5.14347 0.0133905 -0.942237 255 0 255
-5.1039 0.015492 -0.935391 0 255 0
-5.06451 0.0183288 -0.92883 255 0 255
-5.02207 0.0192184 -0.925598 0 255 0
-4.92925 0.0136675 -0.924828 0 255 0
-4.82495 0.0148434 -0.922705 0 255 0
-4.76229 0.0104715 -0.922311 0 255 0
-4.68458 0.0120578 -0.915669 0 255 0
-4.56654 0.0146743 -0.899126 0 255 0
-4.52409 0.0173152 -0.892074 255 0 255
-4.43711 0.0208754 -0.877847 255 0 255
-4.3917 0.0163235 -0.870044 255 0 255
-4.35216 0.0161219 -0.865334 0 255 0
-4.0138 0.0185316 -0.805604 0 255 0
-3.97895 0.0170956 -0.798087 0 255 0
-4.06202 0.0172247 -0.811287 0 255 0
-3.90313 0.00900078 -0.790717 0 255 0
-3.85756 0.0108396 -0.788618 0 255 0
-3.85565 0.0250891 -0.786153 0 255 0
-3.83648 0.0232244 -0.789852 255 0 255
-3.78153 0.0132292 -0.826658 0 255 0
-3.77323 0.0122146 -0.842556 0 255 0
-3.77036 0.00998549 -0.844811 0 255 0
-3.73759 0.0119136 -0.858873 0 255 0
-3.72174 0.0076768 -0.868948 0 255 0
-3.69414 0.00930071 -0.874073 0 255 0
-3.63655 0.00636444 -0.892929 0 255 0
-3.60648 0.0108409 -0.902601 0 255 0
-3.56993 0.00880955 -0.91377 0 255 0
-3.45176 0.00747577 -0.950821 0 255 0
-3.41772 0.0107122 -0.962573 0 255 0
-3.38163 0.013141 -0.976957 0 255 0
-3.2871 0.00781321 -0.99683 0 255 0
-3.20353 0.00637393 -1.01998 0 255 0
-3.16171 0.00727217 -1.0314 255 0 255
-2.9998 0.00739927 -1.07814 0 255 0
-2.95862 0.00573512 -1.09014 0 255 0
-2.88117 0.00865948 -1.1151 0 255 0
-2.64038 0.00713715 -1.18347 0 255 0
-2.23858 0.00569054 -1.21517 0 255 0
-2.21361 0.00740104 -1.20935 0 255 0
-2.19759 0.00690583 -1.20248 0 255 0
-2.16153 0.00641396 -1.18584 0 255 0
-2.11848 0.004789 -1.16891 255 0 255
-2.13433 0.00791234 -1.17475 255 0 255
-2.05033 0.012441 -1.15017 0 255 0
-2.02282 0.0112881 -1.14103 0 255 0
-1.98726 0.0112801 -1.13225 0 255 0
-1.82883 0.00712625 -1.08619 255 0 255
-1.79716 0.0116943 -1.07249 0 255 0
-1.70787 0.00926844 -1.04895 0 255 0
-1.62379 0.00900863 -1.02384 0 255 0
-1.58826 0.00702959 -1.01199 0 255 0
-1.54537 0.00533395 -1.00142 0 255 0
-1.44819 0.00398811 -0.988273 0 255 0
-1.39264 -0.000151585 -0.990358 0 255 0
-1.36888 -0.00480078 -0.996384 255 0 255
-1.33547 -0.00429873 -1.00191 0 255 0
-1.18289 -0.00315983 -1.01283 255 0 255
-1.14347 -0.00646955 -1.00962 0 255 0
-1.10003 -0.00405638 -1.00881 0 255 0
-0.972066 -0.00255117 -1.01043 255 0 255
-0.929833 -0.00116062 -1.00656 0 255 0
-0.73924 -0.0189173 -1.03608 0 255 0
-0.658475 0.00152171 -0.999665 0 255 0
-0.61357 -0.000878334 -0.998005 0 255 0
-0.571693 0.00165764 -0.991793 255 0 255
-0.478845 0.00259322 -0.981498 0 255 0
-0.429745 -0.00210753 -0.980098 0 255 0
-0.388668 0.0018393 -0.975459 0 255 0
-0.255758 0.00272255 -0.954273 255 0 255
-0.211747 0.00100386 -0.94545 255 0 255
-0.170671 0.00613723 -0.935278 0 255 0
-0.125552 0.00648826 -0.925461 0 255 0
0.00161261 0.00528234 -0.899918 0 255 0
0.0884827 0.00347499 -0.884525 0 255 0
0.130443 0.00210659 -0.873503 0 255 0
0.216692 0.00355128 -0.856514 255 0 255
0.258635 0.00597996 -0.844495 0 255 0
0.343784 0.00582747 -0.817642 255 0 255
0.684112 0.00183502 -0.718905 255 0 255
0.643501 0.00439399 -0.730472 255 0 255
0.72301 0.00587984 -0.705823 0 255 0
0.763802 0.00254462 -0.692068 0 255 0
0.882087 0.00338631 -0.648253 0 255 0
0.917758 0.0050049 -0.635563 0 255 0
0.99928 0.00110295 -0.60787 255 0 255
1.03974 0.00163926 -0.589321 0 255 0
1.11587 0.00205462 -0.557323 255 0 255
1.23018 0.00363813 -0.504628 0 255 0
1.30585 -8.39757e-005 -0.475269 0 255 0
1.34504 0.000997484 -0.460472 0 255 0
1.38258 0.00032082 -0.442408 255 0 255
1.4621 -0.00164252 -0.402268 0 255 0
1.59041 0.00292547 -0.358918 255 0 255
1.65426 0.00295666 -0.359687 0 255 0
1.6769 -0.00605262 -0.364438 255 0 255
1.65386 0.0029837 -0.356203 255 0 255
1.75206 0.00153641 -0.390593 0 255 0
1.7781 0.0050315 -0.391493 0 255 0
1.88277 -0.00127685 -0.409677 0 255 0
1.81048 0.0032108 -0.398096 255 0 255
1.84094 0.00187773 -0.404392 255 0 255
1.72987 -0.00292554 -0.391872 0 255 0
